ply
format ascii 1.0
element vertex 743
property float x
property float y
property float z
property float nx
property float ny
property float nz
property uchar diffuse_red
property uchar diffuse_green
property uchar diffuse_blue
end_header
1.11458 -0.588772 3.28672 -0.498057 -0.790502 0.356434 55 40 24
1.11458 -0.588772 3.28672 -0.498057 -0.790502 0.356434 55 40 24
0.799949 -0.677196 3.30891 0.561534 -0.824484 -0.0700369 153 135 100
0.757786 -0.688783 3.31517 0.339151 -0.937849 -0.0735859 34 22 9
0.702034 -0.705173 3.29967 -0.402124 -0.907546 0.121062 9 4 1
0.677863 -0.696061 3.28945 -0.587693 -0.473707 0.655911 9 4 1
0.518403 -0.747396 3.31845 -0.0565642 -0.876933 0.477273 5 2 1
0.503084 -0.769097 3.31818 0.0929738 -0.755144 0.648932 5 1 0
0.485278 -0.782657 3.31227 0.0473551 -0.695031 0.717418 18 12 6
0.445814 -0.76975 3.31898 0.0133153 -0.138116 0.990327 5 2 1
0.368355 -0.749778 3.28665 -0.376029 -0.407137 0.832371 5 1 0
0.343669 -0.755151 3.28923 -0.022511 -0.285078 0.95824 6 2 1
0.307235 -0.745461 3.28771 0.083663 -0.481723 0.872321 5 1 0
0.0636405 -0.646832 3.20549 -0.013411 -0.9836 -0.179864 31 18 7
0.0104625 -0.637123 3.18759 -0.0870622 -0.994004 0.066155 5 1 0
-0.0902594 -0.701398 3.21499 0.0546811 -0.953853 -0.295252 3 1 1
-0.108697 -0.702214 3.2114 -0.18166 -0.956529 -0.22815 15 9 4
-0.13369 -0.674145 3.1787 0.120922 -0.967681 0.221295 8 3 1
-0.156864 -0.673239 3.19223 -0.174321 -0.957221 -0.230954 9 4 1
-0.176987 -0.668442 3.18282 -0.246984 -0.948234 -0.199629 3 1 0
-0.149741 -0.69347 3.19278 -0.227579 -0.952767 -0.201105 9 5 2
1.07139 1.48963 2.13869 -0.0807202 -0.995309 0.0533285 16 10 6
1.07724 1.31791 2.24516 0.925703 -0.219879 0.307777 20 13 9
1.05583 1.32611 2.22632 0.928526 -0.221407 0.298026 25 18 13
1.05583 1.32611 2.22632 0.928526 -0.221407 0.298026 25 18 13
0.999024 1.14843 2.32092 0.555921 -0.152322 0.817159 25 17 13
1.07246 0.7174 2.573 -0.368958 -0.82999 0.418315 28 20 17
1.0299 0.819638 2.52754 0.87436 -0.482384 0.0529179 35 27 21
1.12626 -0.579194 3.31052 -0.52543 -0.686536 0.502585 42 30 20
0.799305 -0.622501 3.30233 0.588355 -0.808131 -0.0276076 169 151 108
0.799305 -0.622501 3.30233 0.588355 -0.808131 -0.0276076 169 151 108
0.774241 -0.673995 3.32336 0.844672 -0.5352 0.00954419 97 83 61
0.718657 -0.691902 3.3215 -0.459189 -0.887353 0.0418285 41 28 17
0.669719 -0.703278 3.32316 -0.411892 -0.611562 0.675527 10 5 1
0.66888 -0.713267 3.32916 -0.254506 -0.495236 0.830643 10 5 1
0.538995 -0.742357 3.33021 0.124641 -0.743034 0.657545 6 2 1
0.522552 -0.762608 3.33113 0.0896971 -0.745199 0.660782 5 2 1
0.501176 -0.747212 3.33496 0.0218539 -0.781644 0.623342 11 6 3
0.492104 -0.742069 3.33632 -0.146678 -0.203913 0.967939 9 5 2
0.476679 -0.74055 3.32253 -0.299205 -0.24401 0.922462 6 2 1
0.471516 -0.748037 3.33655 -0.100367 -0.193828 0.975888 6 2 0
0.461827 -0.773296 3.33388 -0.170206 -0.193659 0.966191 5 2 0
0.434775 -0.754111 3.32348 -0.264155 -0.229237 0.936842 5 2 1
0.372175 -0.658696 3.25711 0.155475 -0.979791 0.125849 5 2 0
0.356321 -0.706612 3.29978 0.0386208 -0.999178 -0.0122945 6 2 0
0.342575 -0.736257 3.305 0.0978077 -0.754563 0.648897 6 1 0
0.318257 -0.711837 3.2984 0.000988692 -0.896584 0.442874 14 8 4
0.297886 -0.711357 3.28609 -0.0199335 -0.943696 0.330213 13 7 4
0.274231 -0.737147 3.30433 -0.129131 -0.31682 0.939654 5 2 0
0.248372 -0.761159 3.31932 -0.046241 -0.517612 0.854365 4 2 1
0.127094 -0.755339 3.29592 -0.0878027 -0.609814 0.787666 4 1 1
0.112133 -0.763453 3.30184 -0.0442446 -0.516913 0.854894 4 1 1
0.0383068 -0.646589 3.22321 0.0345967 -0.97696 -0.2106 75 57 33
0.00924757 -0.692226 3.24216 -0.121392 -0.988054 -0.094934 23 14 7
0.0137652 -0.642753 3.21144 -0.0466521 -0.989306 -0.138191 34 19 8
0.00791658 -0.622637 3.20364 -0.00349002 -0.981091 0.193517 15 8 4
-0.017565 -0.659942 3.21272 -0.172236 -0.985044 -0.00481954 50 37 22
-0.017565 -0.659942 3.21272 -0.172236 -0.985044 -0.00481954 44 32 19
-0.0533987 -0.687645 3.22853 -0.358477 -0.923055 -0.139514 7 2 0
-0.0753263 -0.69053 3.2375 -0.128479 -0.974862 -0.182035 38 27 16
-0.0927454 -0.696029 3.23258 -0.187511 -0.969792 -0.156026 47 35 21
-0.113197 -0.689479 3.22095 -0.275616 -0.951076 -0.139607 31 23 14
-0.130861 -0.693106 3.21996 -0.280382 -0.942224 -0.183303 5 1 0
-0.175633 -0.679013 3.21081 -0.169409 -0.95765 -0.232823 5 1 0
-0.199684 -0.667301 3.19922 -0.21282 -0.959705 -0.183504 4 1 0
1.0889 1.34761 2.24915 0.945118 -0.225927 0.236027 20 13 9
1.06606 1.28619 2.28323 0.87034 -0.410854 0.271492 25 18 14
1.0629 1.29362 2.27899 0.903229 -0.244868 0.352445 23 17 13
1.04357 1.19104 2.32481 0.877452 -0.479034 -0.0246085 24 18 13
1.04698 0.841846 2.53007 0.926174 -0.348796 0.14333 30 21 17
0.995174 1.09181 2.39507 0.7951 -0.180169 0.579099 28 20 16
1.23955 -0.544839 3.33963 0.688476 -0.142279 0.711166 22 14 11
0.771888 -0.611421 3.32212 0.390613 -0.196891 0.899253 91 72 48
0.71916 -0.692552 3.3517 -0.483296 -0.873989 -0.0506713 120 101 70
0.64439 -0.703774 3.35577 -0.42969 -0.430695 0.793642 13 6 0
0.5784 -0.70528 3.34504 0.168103 -0.519091 0.838025 12 5 1
0.564565 -0.718619 3.3371 0.119295 -0.478293 0.87006 9 4 1
0.537621 -0.724119 3.3565 0.057316 -0.510257 0.85811 11 5 1
0.554085 -0.721617 3.34962 0.110131 -0.475881 0.872587 10 5 1
0.516855 -0.729326 3.35164 0.0151725 -0.500656 0.865513 14 7 5
0.533922 -0.729171 3.34479 0.0442794 -0.492872 0.868975 9 4 1
0.474018 -0.698049 3.33257 0.0248592 -0.3093 0.95064 8 3 1
0.461347 -0.731043 3.34255 0.0632637 -0.262298 0.962911 8 2 0
0.462524 -0.714902 3.32798 0.083851 -0.257081 0.962745 7 2 1
0.444587 -0.728645 3.33381 0.0245591 -0.272256 0.961911 7 2 0
0.372712 -0.693251 3.32254 0.0627024 -0.896519 0.438545 20 12 4
0.336657 -0.69779 3.30738 0.0501774 -0.738967 0.67187 8 3 1
0.316827 -0.689709 3.31293 -0.0232223 -0.711098 0.702709 9 3 1
0.277641 -0.692459 3.30675 -0.0915487 -0.455392 0.885571 44 32 21
0.255857 -0.694348 3.30506 -0.0878587 -0.442845 0.892283 41 30 19
0.248159 -0.722005 3.29814 -0.145323 -0.321942 0.93554 10 5 2
0.229688 -0.754086 3.32411 -0.0862948 -0.541618 0.836184 5 2 1
0.212682 -0.773028 3.32927 -0.0524654 -0.15634 0.986309 4 1 1
0.208177 -0.75661 3.32345 -0.0706647 -0.408563 0.90999 5 2 1
0.18958 -0.749985 3.33037 -0.0345038 -0.554486 0.831477 8 2 0
0.190535 -0.772435 3.31958 -0.124512 -0.424324 0.896909 4 1 0
0.171688 -0.7648 3.32608 -0.0690679 -0.302944 0.950502 4 1 0
0.131072 -0.752424 3.31108 -0.119233 -0.639866 0.75918 5 2 0
0.116539 -0.762115 3.31702 -0.0302692 -0.51605 0.856024 6 2 0
0.0410719 -0.658392 3.25128 0.153697 -0.987445 -0.0364729 25 18 11
0.0250303 -0.674165 3.24962 0.140791 -0.987592 -0.0695737 29 20 11
0.00662427 -0.68412 3.26529 0.17078 -0.935291 -0.309944 6 2 0
-0.013041 -0.680443 3.24517 0.010234 -0.993441 -0.113883 12 5 2
-0.039628 -0.668123 3.24902 0.0949052 -0.978987 -0.180493 28 20 11
-0.0570458 -0.679143 3.2438 0.165927 -0.956309 -0.24071 6 1 0
-0.136097 -0.6777 3.22704 -0.167342 -0.95781 -0.23366 5 1 0
-0.157568 -0.683264 3.24472 -0.337407 -0.892797 -0.298447 7 3 0
1.05929 1.50872 2.17363 0.929759 -0.169181 0.326996 18 11 7
1.0773 1.30614 2.28917 0.899737 -0.205646 0.384945 20 14 10
1.05796 1.30202 2.31245 0.878491 -0.195506 0.435925 24 17 13
1.03862 1.2149 2.35543 0.857245 -0.512023 -0.0544336 28 21 17
1.00348 1.1199 2.39595 0.754081 -0.0768893 0.652266 24 16 11
1.00956 1.09752 2.41773 0.810952 -0.207342 0.547143 25 16 13
1.04949 0.820751 2.56524 0.899025 -0.42994 0.083104 31 22 18
1.23477 -0.571579 3.37772 0.479996 -0.05039 0.875823 25 17 13
1.12723 -0.567827 3.35614 -0.326382 -0.452274 0.830014 60 45 30
0.784847 -0.584651 3.31592 0.606212 -0.175555 0.775685 146 129 95
0.764523 -0.631279 3.34664 0.912795 -0.403513 -0.0631021 115 91 54
0.664418 -0.665902 3.34477 -0.485003 -0.579347 0.655079 17 9 2
0.614492 -0.706088 3.36867 0.0450085 -0.16563 0.98516 18 10 6
0.549999 -0.689712 3.34387 -0.0627135 -0.296603 0.95294 10 4 1
0.540928 -0.71201 3.36295 0.155662 -0.464505 0.871782 16 7 1
0.466202 -0.666398 3.33514 0.0512976 -0.626775 0.77751 11 5 1
0.465269 -0.68577 3.34055 0.0443782 -0.305126 0.951278 12 4 1
0.444637 -0.688797 3.34355 0.0788541 -0.29757 0.951438 13 4 1
0.4285 -0.670778 3.33763 0.052667 -0.65128 0.757008 36 23 12
0.432328 -0.70241 3.33811 0.0528954 -0.264907 0.962822 9 3 1
0.391213 -0.666189 3.33502 -0.156235 -0.690868 0.705898 12 4 1
0.409383 -0.679984 3.33086 -0.120721 -0.546185 0.82892 23 14 7
0.378142 -0.696939 3.34849 0.00621659 -0.589808 0.80752 17 7 2
0.353979 -0.688229 3.32125 -0.0126309 -0.28239 0.959216 30 21 13
0.334251 -0.675108 3.31994 -0.00176378 -0.812539 0.582905 11 4 1
0.29489 -0.709417 3.33221 0.000984415 -0.877463 0.479644 12 4 1
0.255527 -0.674737 3.31866 -0.117776 -0.601775 0.789934 47 31 18
0.235961 -0.683332 3.31005 -0.106992 -0.638767 0.761925 40 27 15
0.239315 -0.696365 3.31389 -0.0262458 -0.339528 0.94023 46 32 20
0.218797 -0.683516 3.31844 -0.0634202 -0.557085 0.82803 47 32 18
0.207724 -0.737188 3.33748 -0.111086 -0.718029 0.687091 15 6 2
0.169109 -0.73581 3.33414 -0.0107586 -0.816482 0.577271 13 5 2
0.170815 -0.716258 3.32412 0.134937 -0.973637 0.183912 11 5 1
0.147927 -0.735493 3.32087 -0.0966904 -0.754071 0.649637 9 4 2
0.131155 -0.73776 3.32847 -0.125363 -0.539375 0.832681 15 6 2
0.114802 -0.736401 3.32847 -0.0500724 -0.518931 0.853348 18 8 3
0.109742 -0.729836 3.31533 -0.0537158 -0.697774 0.714301 20 12 6
0.0566796 -0.713313 3.30253 0.158048 -0.851731 -0.499575 11 3 0
0.0229486 -0.673099 3.26725 0.10591 -0.947006 -0.303254 6 2 1
0.0292542 -0.696672 3.28666 0.141365 -0.974522 -0.174135 8 2 1
0.0265315 -0.690773 3.30236 0.0669392 -0.983589 -0.167547 17 6 1
0.00827751 -0.694151 3.29285 0.143419 -0.97356 -0.177797 11 2 1
-0.0129757 -0.691249 3.29627 0.154471 -0.971556 -0.179495 17 6 1
-0.015692 -0.677308 3.26515 0.106677 -0.950197 -0.292822 7 3 1
-0.0127878 -0.687917 3.27491 0.083398 -0.981982 -0.169578 7 2 1
-0.0337142 -0.686237 3.27926 0.124102 -0.962871 -0.239746 9 2 0
-0.0533592 -0.698072 3.2756 0.183226 -0.932656 -0.310776 8 3 1
1.06149 1.3581 2.30094 0.89887 -0.20544 0.387074 22 15 11
1.03726 1.30351 2.33328 0.909126 -0.296962 0.292066 27 20 16
1.03773 1.20818 2.36947 0.856061 -0.513826 -0.0560605 28 22 17
1.0291 1.14498 2.40054 0.908443 -0.416646 0.0337414 26 20 14
1.02171 0.851786 2.56581 0.794902 -0.606426 0.0194636 34 25 20
1.01751 0.872329 2.56777 0.905224 -0.259414 0.336561 30 22 18
1.01718 0.797136 2.60899 0.94337 -0.240751 0.228237 35 26 21
0.680744 -0.624115 3.36511 0.206987 -0.097205 0.973503 133 108 71
0.663267 -0.639321 3.35941 0.195607 -0.23384 0.952395 37 21 5
0.625606 -0.645734 3.37545 -0.00304164 -0.614375 0.789009 89 65 36
0.605207 -0.65028 3.36585 -0.0466904 -0.574188 0.817391 56 37 19
0.584532 -0.654235 3.35321 -0.00772104 -0.750534 0.660787 47 33 19
0.526558 -0.648588 3.36122 0.028381 -0.715034 0.698514 63 43 23
0.507927 -0.658751 3.3553 -0.0296051 -0.757683 0.651951 26 11 2
0.509183 -0.661683 3.36543 0.143608 -0.952609 0.268167 49 30 13
0.486169 -0.659693 3.34383 0.0168001 -0.830974 0.556057 16 6 1
0.467148 -0.654359 3.35394 0.0633762 -0.769648 0.635315 41 24 10
0.429635 -0.656876 3.35741 -0.000665516 -0.600964 0.799276 84 63 38
0.447835 -0.662055 3.34617 0.0902504 -0.706706 0.701727 39 25 13
0.447799 -0.662014 3.34419 0.109174 -0.718595 0.686805 38 24 13
0.409548 -0.663581 3.34741 -0.141387 -0.677054 0.722224 46 30 17
0.37732 -0.678056 3.36113 0.0468832 -0.695656 0.716843 74 53 30
0.370093 -0.661453 3.3491 -0.0815923 -0.411225 0.907875 72 52 28
0.353713 -0.661268 3.35161 0.183111 -0.947361 0.262636 92 70 41
0.35605 -0.678424 3.33912 -0.00301401 -0.583462 0.812135 44 30 18
0.333976 -0.664972 3.33977 -0.0647716 -0.913258 0.4022 51 34 18
0.314992 -0.67102 3.33195 -0.0383151 -0.648129 0.760566 32 19 10
0.297744 -0.67159 3.34861 -0.00420652 -0.956068 0.293114 95 71 43
0.296033 -0.664426 3.34021 -0.133611 -0.71915 0.681888 72 50 28
0.276953 -0.673213 3.33255 -0.0334522 -0.614194 0.788446 72 51 29
0.25773 -0.664986 3.33995 -0.0710437 -0.655355 0.751973 100 75 46
0.237818 -0.672408 3.32593 -0.107732 -0.62716 0.771404 56 37 20
0.219375 -0.66792 3.33399 -0.0743587 -0.740741 0.667663 87 63 37
0.19914 -0.672818 3.32289 -0.0416826 -0.841681 0.538364 59 40 22
0.167377 -0.68694 3.34279 0.245641 -0.923097 0.295892 112 86 52
0.187479 -0.69246 3.33684 0.232228 -0.770653 0.593435 73 52 30
0.148482 -0.694354 3.33314 0.00126582 -0.95642 0.291993 61 43 26
0.148299 -0.721905 3.33827 -0.115963 -0.536871 0.835656 42 26 13
0.127186 -0.685107 3.33552 -0.201155 -0.975502 -0.0890611 114 89 55
0.100912 -0.674934 3.31777 -0.134245 -0.79096 0.596959 95 69 39
0.0283368 -0.695397 3.32985 0.172997 -0.984833 -0.0132775 118 92 55
0.0102821 -0.699499 3.32101 0.0667973 -0.993669 0.0903364 80 56 29
-0.0305456 -0.691936 3.30969 0.130005 -0.943064 -0.306152 64 43 21
0.00709105 -0.792362 3.37251 -0.0297749 -0.222627 0.974449 14 10 5
-0.0252338 -0.811688 3.36635 -0.332863 -0.366271 0.868935 6 2 0
-0.0655016 -0.71874 3.32224 0.222435 -0.945381 -0.238279 96 72 39
-0.910733 -0.286514 2.97392 0.765245 -0.174668 0.61959 1 0 1
-0.922763 -0.30431 2.96693 0.759227 -0.0972472 0.64352 0 0 1
-0.945184 -0.345233 3.00085 0.765349 -0.174623 0.619473 1 1 1
-0.92968 -0.570675 3.1297 0.926673 -0.244844 0.28518 10 6 3
-0.98387 -0.367953 2.99515 0.925919 -0.377407 0.0154277 0 0 0
1.05537 1.30108 2.35561 0.852572 -0.324296 0.409821 26 19 14
1.04681 1.2924 2.3458 0.798901 -0.438606 0.411561 27 20 16
1.03887 1.29061 2.34724 0.866645 -0.419574 0.26997 27 20 16
1.02933 1.19607 2.39603 0.91462 -0.401405 0.0484138 29 23 17
1.00537 1.08642 2.4721 0.875814 -0.0954321 0.47312 25 16 14
1.02413 0.889209 2.58106 0.947033 -0.238621 0.214915 33 26 19
1.00335 0.856375 2.60051 0.858018 -0.192205 0.476301 33 24 19
0.767846 -0.593621 3.36764 0.929944 -0.367569 -0.0098841 176 145 94
0.685126 -0.636882 3.38152 -0.0683504 -0.160764 0.984623 139 110 70
0.683565 -0.624295 3.39902 0.426161 -0.903369 0.0480735 201 168 109
0.664774 -0.629406 3.38942 0.0264894 -0.957436 0.287427 175 142 89
0.628059 -0.637031 3.39753 -0.0368994 -0.879426 0.474604 196 162 104
0.601533 -0.613599 3.37936 0.00854279 -0.139484 0.990188 205 168 110
0.568354 -0.644893 3.39051 0.116391 -0.645826 0.754561 167 134 87
0.548257 -0.645154 3.37589 0.077594 -0.951026 0.299212 127 98 60
0.526409 -0.641835 3.38805 0.0660013 -0.888403 0.454296 183 150 98
0.528746 -0.641093 3.38449 0.0845646 -0.938367 0.335135 172 139 90
0.506963 -0.646871 3.37726 0.0885798 -0.894525 0.438153 140 110 68
0.506337 -0.647726 3.37543 0.106188 -0.935515 0.336951 130 101 62
0.487182 -0.649223 3.36442 0.051249 -0.940538 0.335799 92 68 38
0.449354 -0.649274 3.36571 0.13004 -0.884118 0.448804 126 100 63
0.469558 -0.651332 3.38109 0.101269 -0.900495 0.42291 167 136 86
0.410739 -0.650213 3.36735 -0.0795025 -0.711011 0.698673 129 102 64
0.391474 -0.65978 3.35954 -0.19932 -0.654822 0.729027 66 45 21
0.393427 -0.658391 3.35792 -0.169886 -0.557167 0.812837 70 49 24
0.370893 -0.646792 3.3645 -0.0356323 -0.617509 0.785757 164 133 83
0.349955 -0.64859 3.3538 0.00520533 -0.386761 0.922166 181 149 94
0.336879 -0.66577 3.37187 0.0557605 -0.915761 0.397834 186 153 98
0.297289 -0.662017 3.36788 -0.0464401 -0.933148 0.35648 180 146 94
0.31523 -0.663114 3.35232 -0.00509122 -0.955961 0.293448 122 95 60
0.317466 -0.668423 3.36029 -0.0362334 -0.953457 0.299344 137 108 67
0.277371 -0.663946 3.35549 0.0751309 -0.927498 0.366201 148 118 75
0.238598 -0.657528 3.34829 0.00111683 -0.882188 0.470896 160 128 83
0.222082 -0.662579 3.36 -0.0421422 -0.764185 0.643619 187 152 97
0.201582 -0.665887 3.34761 0.00264165 -0.956445 0.291901 171 138 88
0.167169 -0.680163 3.36295 0.208066 -0.882698 0.42137 173 140 88
0.144524 -0.674909 3.33833 0.0413319 -0.957661 0.284915 130 101 63
-0.973999 -0.383579 3.03928 0.952139 -0.269439 0.144336 3 0 1
-0.991184 -0.446068 3.07322 0.881123 -0.457489 0.119689 0 0 1
-1.01728 -0.480797 3.1006 0.854869 -0.51875 0.00985013 0 0 0
1.0724 1.66707 2.17456 -0.705847 -0.443357 0.552462 19 13 11
1.09524 1.3802 2.33146 0.892154 -0.160605 0.422218 19 12 8
1.06152 1.34674 2.35029 0.876168 -0.183362 0.445766 21 14 10
1.02829 1.3325 2.36353 0.801371 -0.547697 0.240484 28 21 16
0.986177 1.08435 2.49218 0.904654 -0.195575 0.378617 32 24 19
1.00395 0.896536 2.59325 -0.0778175 -0.163377 0.98349 31 23 17
1.09748 -0.52616 3.42055 -0.502706 -0.738086 0.450018 159 132 96
1.0676 -0.502942 3.39742 -0.40766 -0.811635 0.418404 186 153 107
0.64702 -0.631584 3.40437 0.127879 -0.945661 0.298951 208 171 111
0.609463 -0.632194 3.4127 0.0610331 -0.938213 0.340633 219 183 120
0.589123 -0.636534 3.40102 0.0238912 -0.884851 0.465262 207 174 116
0.567203 -0.621078 3.40662 0.106309 -0.680907 0.724613 216 181 119
0.54882 -0.639642 3.39884 0.0205369 -0.95723 0.288598 200 163 106
0.546469 -0.63883 3.40115 0.0913572 -0.956673 0.27646 212 177 117
0.488303 -0.64553 3.38974 0.0438131 -0.770154 0.636352 195 159 103
0.466461 -0.648655 3.39147 0.0342463 -0.934311 0.354809 212 177 115
0.452216 -0.644683 3.39564 0.203248 -0.974191 -0.0981942 219 185 121
0.431855 -0.648332 3.38258 0.0841621 -0.810028 0.58032 188 156 104
0.410288 -0.632782 3.38175 -0.191022 -0.654896 0.731179 178 144 91
0.376937 -0.65485 3.3902 -0.170686 -0.622451 0.76382 210 178 116
0.341821 -0.66938 3.3957 0.0381778 -0.85001 0.525382 213 179 118
0.316922 -0.659885 3.37953 -0.0336078 -0.953609 0.299167 198 163 106
0.258628 -0.662011 3.36716 0.0586768 -0.944571 0.323021 190 154 100
-0.923426 -0.283985 3.00574 0.675786 -0.171682 0.716825 2 0 1
-0.924079 -0.29435 3.01168 0.695125 -0.171748 0.698072 3 0 0
-0.951252 -0.294641 3.02775 0.682746 -0.171696 0.710196 38 30 17
-0.949495 -0.379639 3.07829 0.900913 -0.42372 -0.0938976 126 109 77
-0.961261 -0.351801 3.04113 0.906145 -0.415046 -0.0814723 20 10 4
-0.971115 -0.386167 3.06634 0.923473 -0.382199 -0.033497 35 24 14
-1.01306 -0.442199 3.09894 0.896558 -0.442904 0.00442109 1 0 1
-1.05297 -0.483818 3.12357 0.841121 -0.540762 -0.00963202 0 0 0
1.07156 1.36994 2.357 0.825772 -0.312039 0.469822 19 13 9
1.02731 1.01093 2.55215 0.843279 -0.0674099 0.533231 25 17 14
0.999009 1.11076 2.50664 0.93962 -0.191796 0.283424 32 23 19
-0.939504 -0.275571 3.03357 0.815667 -0.180383 0.549681 63 55 33
-0.974289 -0.406983 3.09629 0.863919 -0.475626 -0.165604 88 74 52
-0.998238 -0.410271 3.09905 0.899813 -0.436144 0.0107336 18 12 8
-1.03315 -0.470633 3.12998 0.871942 -0.48916 -0.020996 0 0 0
-1.00221 -0.606303 3.21894 -0.070561 -0.885443 -0.45936 1 0 1
1.07918 1.7639 2.17403 0.766592 -0.574035 -0.287786 23 19 14
1.07854 1.76573 2.17366 0.746859 -0.590015 -0.30673 24 19 14
1.06254 1.68269 2.21935 0.877184 -0.459002 -0.140945 21 15 12
1.06555 1.67075 2.22386 0.918262 -0.393147 -0.0472322 21 15 11
1.00346 1.16717 2.49325 0.937897 -0.187633 0.291794 30 21 18
1.00168 1.11519 2.52773 0.834547 -0.125478 0.536457 26 19 15
0.981288 1.10328 2.53172 0.911418 -0.13646 0.388196 27 19 16
-0.97379 -0.412546 3.1368 0.853949 -0.515824 -0.0685361 140 121 83
-0.97379 -0.412546 3.1368 0.853949 -0.515824 -0.0685361 140 121 83
-1.00658 -0.429559 3.13995 0.882348 -0.470139 -0.0207626 32 22 13
-1.03078 -0.424824 3.12757 0.863914 -0.502726 0.0303188 2 0 1
-1.07551 -0.460507 3.14144 -0.143665 -0.650638 0.745674 0 0 0
1.10457 1.94521 2.10995 0.90492 -0.357709 0.230576 25 18 15
1.08109 1.7158 2.22011 0.879545 -0.455813 -0.136511 24 19 15
1.05111 1.87923 2.11865 0.853572 -0.488583 -0.180834 23 19 14
1.08243 1.71138 2.22108 0.790372 -0.571653 -0.220286 24 19 15
1.06726 -0.433902 3.42469 -0.280689 -0.767594 0.576205 178 146 99
-0.235418 -0.573861 3.34985 0.24304 -0.956105 0.163689 167 129 76
-0.996097 -0.389568 3.15079 0.896163 -0.374695 0.237685 134 116 83
-0.996097 -0.389568 3.15079 0.896163 -0.374695 0.237685 139 120 87
-1.0227 -0.41048 3.15267 0.827902 -0.560808 -0.00854753 32 21 13
-1.05041 -0.442092 3.16804 0.532033 -0.746705 0.399215 3 0 2
-1.06334 -0.431261 3.15143 0.140099 -0.832791 0.535566 1 0 1
1.09199 1.93294 2.136 0.820571 -0.5108 0.256412 24 18 14
1.07082 1.70749 2.2483 0.898057 -0.439718 0.011874 26 20 17
1.00551 1.19837 2.53378 0.812556 -0.47475 0.338178 31 23 19
1.00689 1.15684 2.55984 0.940226 -0.19815 0.276969 30 20 17
0.999837 1.16286 2.54992 0.940711 -0.198326 0.27519 30 21 17
0.99201 1.17239 2.53666 0.885814 -0.171946 0.431008 33 23 18
-0.0729427 -0.571123 3.38905 -0.106187 -0.943475 0.313973 214 169 107
-0.131288 -0.581455 3.38581 -0.239481 -0.891258 0.385108 203 159 99
-0.212729 -0.574856 3.36809 0.00833573 -0.976712 0.214394 187 145 87
-0.21368 -0.576351 3.3657 -0.0311172 -0.975892 0.216024 185 143 85
-0.213688 -0.576336 3.36566 -0.0304819 -0.975778 0.216627 185 143 85
-0.213688 -0.576336 3.36566 -0.0304819 -0.975778 0.216627 185 143 85
-1.00649 -0.426138 3.17471 0.406234 -0.912268 0.052354 98 80 57
-1.03518 -0.419973 3.17131 0.631209 -0.660274 0.406955 22 12 6
-1.04962 -0.423386 3.19057 0.533128 -0.597048 0.599423 15 6 3
-1.06818 -0.435564 3.19093 0.361966 -0.726129 0.584566 2 0 1
-1.07769 -0.432376 3.17046 -0.315967 -0.696967 0.643741 0 0 1
1.13292 2.14732 2.04464 0.915807 -0.213859 0.339944 23 15 12
1.1302 2.13226 2.03793 0.772745 -0.581915 0.253455 25 17 14
1.10661 1.97555 2.14081 0.562021 -0.0873425 0.822498 28 21 19
1.08182 1.74688 2.24926 0.889803 -0.456329 -0.00367472 25 18 15
1.08627 1.4814 2.40526 0.841471 -0.0662582 0.536223 18 13 10
1.02804 1.02898 2.66439 0.943695 -0.234683 0.233158 26 18 14
0.991993 1.14043 2.59357 0.943043 -0.205558 0.261566 33 24 20
1.02213 0.944464 2.71112 0.946878 -0.22549 0.229296 29 23 18
1.11099 -0.429421 3.47217 -0.44412 -0.43221 0.784826 124 101 72
0.435744 -0.532726 3.46612 -0.0865778 -0.946907 0.309631 227 181 117
0.17651 -0.554595 3.43293 -0.138615 -0.926994 0.348521 226 182 118
0.154607 -0.550865 3.43939 0.0670421 -0.94878 0.308744 226 184 119
0.112655 -0.553014 3.43712 0.0341362 -0.948689 0.314364 207 166 107
0.134983 -0.557776 3.43471 0.13201 -0.94531 0.298266 221 178 116
0.116414 -0.56583 3.4356 -0.387272 -0.824614 0.41235 211 168 109
0.0944826 -0.566629 3.44216 -0.330639 -0.787561 0.520024 190 149 92
0.0601758 -0.567984 3.41809 -0.230112 -0.91055 0.343435 217 174 114
-0.052632 -0.567442 3.4038 0.104491 -0.946147 0.306412 221 177 113
-0.0746553 -0.561754 3.40073 0.0658924 -0.948596 0.309555 220 178 115
-0.0912365 -0.572107 3.40705 0.0670735 -0.885808 0.459179 210 169 107
-0.110734 -0.578005 3.39848 -0.11741 -0.865883 0.486274 209 166 106
-0.131103 -0.568459 3.40715 -0.0689258 -0.87513 0.478953 206 165 106
-0.169503 -0.57043 3.40916 0.0456167 -0.772422 0.633469 188 151 95
-0.189217 -0.57622 3.39903 -0.027102 -0.825976 0.563054 199 159 101
-0.228357 -0.57672 3.39958 0.00234677 -0.618194 0.786022 177 140 87
-1.03226 -0.40537 3.19069 0.454477 -0.854915 0.250143 86 69 49
-1.06795 -0.422273 3.20824 0.428478 -0.585512 0.688173 7 2 1
-1.067 -0.4204 3.20697 0.400029 -0.611248 0.6829 8 2 1
-1.09126 -0.425152 3.18943 -0.211702 -0.670341 0.711214 0 0 1
-1.12794 -0.425848 3.20385 -0.197271 -0.605638 0.7709 0 0 0
1.15217 2.14999 2.06054 0.878884 -0.198165 0.433927 23 15 12
1.14504 2.0152 2.12688 0.930111 -0.223082 0.291766 26 20 15
1.0887 1.95173 2.16649 0.898172 -0.302955 0.3186 25 19 16
1.08943 1.50102 2.41324 0.779295 -0.0284773 0.62601 17 12 9
0.993198 1.19926 2.57835 0.936986 -0.184412 0.29673 30 20 17
0.999481 1.1452 2.61406 0.930417 -0.197116 0.30898 30 22 18
0.991484 1.15848 2.59659 0.942031 -0.207067 0.26401 32 23 19
1.03355 0.978935 2.71334 0.946961 -0.227744 0.22671 28 21 16
0.481988 -0.521405 3.49127 0.0418026 -0.480354 0.876078 234 191 127
0.392986 -0.533429 3.47024 0.182703 -0.94326 0.277274 203 159 99
0.133645 -0.547981 3.44963 0.0751563 -0.940567 0.331189 221 179 118
0.0938199 -0.54726 3.45194 -0.0704693 -0.901183 0.427672 182 144 91
0.0765293 -0.558446 3.45717 -0.116359 -0.588608 0.800001 189 151 98
0.0535852 -0.557207 3.45224 0.00961785 -0.481922 0.876161 203 166 110
0.0320226 -0.558043 3.45232 -0.0308855 -0.238129 0.970742 205 167 111
0.0389106 -0.561268 3.43419 0.0589935 -0.656847 0.751712 216 176 114
0.00636675 -0.555434 3.42882 -0.00171115 -0.955707 0.294315 220 179 118
-0.0161588 -0.555285 3.42488 0.00568527 -0.954295 0.298812 221 181 120
-0.0373011 -0.555978 3.42512 0.00850047 -0.940263 0.340342 213 172 113
-0.0575742 -0.558346 3.44126 -0.070887 -0.302209 0.950602 190 156 105
-0.047463 -0.571734 3.43183 -0.141243 -0.427435 0.892945 215 173 111
-0.0904738 -0.559834 3.43085 -0.0122227 -0.795567 0.605742 187 151 98
-0.129688 -0.559513 3.43015 -0.0882659 -0.788154 0.609116 167 135 88
-0.13009 -0.558984 3.43095 -0.0928376 -0.787706 0.609016 163 131 86
-0.110635 -0.565611 3.41813 -0.0430629 -0.835078 0.548444 201 161 104
-0.150212 -0.566436 3.42243 -0.1248 -0.586288 0.800432 186 151 99
-0.16971 -0.555898 3.42682 -0.0739479 -0.504421 0.860286 100 77 47
-0.170262 -0.573344 3.41355 -0.124556 -0.588369 0.798942 187 150 94
-0.189757 -0.562431 3.41481 0.0130312 -0.711052 0.703018 144 115 72
-0.209013 -0.569084 3.4072 -0.0567401 -0.702862 0.70906 178 144 93
-0.209627 -0.553653 3.4196 -0.0903352 -0.40121 0.911521 68 50 28
-0.228109 -0.561129 3.41686 -0.0050309 -0.706035 0.708159 126 102 67
-0.249536 -0.564249 3.41823 0.0226056 -0.769799 0.637886 137 110 71
-0.268109 -0.573274 3.41438 0.0476018 -0.538964 0.840983 167 133 85
-0.291068 -0.559285 3.41032 -0.290865 -0.48103 0.827048 163 131 88
-0.958463 -0.259534 3.16006 0.870005 -0.234724 0.433585 71 56 32
-1.02839 -0.404126 3.21377 0.141811 -0.901032 0.409917 138 117 85
-1.01148 -0.389185 3.21936 0.159553 -0.561252 0.81212 162 139 95
-1.04967 -0.405295 3.20882 0.344915 -0.80168 0.488204 59 43 29
-1.04792 -0.399214 3.22716 0.163672 -0.750672 0.640081 111 91 65
-1.04686 -0.400619 3.22108 0.0625113 -0.894658 0.442356 101 82 58
-1.06667 -0.408975 3.22252 0.483973 -0.529004 0.697083 28 16 9
-1.08595 -0.418289 3.22208 0.346456 -0.618883 0.704948 3 1 1
-1.10594 -0.425133 3.22038 0.105467 -0.608527 0.786493 0 0 1
-1.12591 -0.414962 3.22563 0.063027 -0.646021 0.760713 0 0 1
1.13234 2.15418 2.08614 0.936164 -0.228194 0.267441 23 17 12
1.13303 2.14493 2.08972 0.944107 -0.221041 0.244547 25 18 14
1.14105 2.1615 2.08282 0.48081 -0.597175 0.642031 22 15 12
1.09926 2.04332 2.15461 0.602039 -0.075043 0.794933 26 20 17
1.09506 2.00458 2.15532 0.633516 -0.313057 0.707568 25 19 17
1.08367 1.47955 2.46512 0.826352 -0.05583 0.560379 19 13 11
0.562545 -0.513849 3.50878 -0.174616 -0.154797 0.972392 185 148 98
0.524422 -0.515325 3.49938 0.116822 -0.275614 0.954143 233 193 131
0.516926 -0.507804 3.51015 0.0461784 -0.0861709 0.99521 187 156 109
0.503418 -0.517798 3.50215 0.0210989 -0.295596 0.95508 220 183 124
0.461612 -0.524444 3.49892 -0.0509889 -0.333868 0.94124 228 187 124
0.431834 -0.523618 3.50862 -0.0352495 -0.240538 0.97 201 164 111
0.410108 -0.523491 3.50868 0.0050616 -0.208249 0.978063 183 148 99
0.134114 -0.5377 3.47254 0.0507546 -0.885765 0.461351 180 147 99
0.114716 -0.543973 3.46538 0.00686179 -0.879698 0.475483 187 152 102
0.113585 -0.547024 3.46583 -0.0524018 -0.841466 0.537763 193 158 105
0.0937138 -0.536923 3.47281 -0.159269 -0.732149 0.662263 96 73 45
0.0635913 -0.537925 3.45995 -0.121034 -0.0366901 0.99197 106 81 49
0.0416663 -0.538186 3.45959 -0.0253731 -0.375887 0.926318 111 88 58
0.0205426 -0.54256 3.46076 -0.117758 -0.394397 0.911364 115 91 58
-0.00150187 -0.543042 3.45899 -0.156207 -0.34026 0.927266 97 74 45
-0.0238084 -0.543099 3.45575 -0.144729 -0.338572 0.929743 84 63 36
-0.0463793 -0.542869 3.45118 -0.144413 -0.420254 0.895841 75 55 31
-0.0688548 -0.541783 3.44754 -0.112352 -0.306531 0.945207 60 42 22
-0.0904312 -0.544263 3.44734 -0.101812 -0.403916 0.909113 55 37 19
-0.109333 -0.553632 3.44052 -0.0715882 -0.718831 0.691489 123 97 62
-0.129027 -0.544236 3.44737 -0.112869 -0.706472 0.698683 31 16 6
-0.149717 -0.549705 3.43767 -0.11943 -0.646833 0.753222 60 42 23
-0.149324 -0.55021 3.43683 -0.119621 -0.64244 0.756942 67 47 27
-0.172186 -0.527444 3.42989 -0.201569 -0.0656537 0.977271 10 3 1
-0.219665 -0.539401 3.43628 -0.0138976 -0.438622 0.898564 9 3 1
-0.230038 -0.557058 3.4273 0.00643708 -0.754029 0.656809 69 51 31
-0.250379 -0.547972 3.43048 0.0539775 -0.537992 0.84122 28 17 7
-0.270567 -0.553758 3.42165 -0.163156 -0.547111 0.821005 107 86 55
-1.04012 -0.397335 3.23388 -0.128287 -0.92259 0.363827 142 121 87
-1.0647 -0.389319 3.2326 0.332522 -0.67178 0.661922 80 62 44
-1.08488 -0.404881 3.2364 0.314057 -0.642341 0.699118 12 4 1
-1.10414 -0.413951 3.23447 0.249721 -0.662054 0.706628 1 0 1
-1.12413 -0.404354 3.24595 0.0686173 -0.680162 0.729844 1 0 0
-1.14066 -0.424987 3.24427 -0.344444 -0.707684 0.61688 0 0 0
1.13626 2.29835 2.02353 0.948613 -0.241798 0.204127 22 16 11
1.12324 2.27851 2.05148 0.951146 -0.247597 0.184437 22 15 12
1.13018 2.24381 2.06562 0.949905 -0.292858 0.109157 22 15 12
1.12643 2.25905 2.05923 0.708966 -0.633466 -0.30998 22 15 12
1.12274 2.12857 2.12545 0.951708 -0.264197 0.156373 27 21 17
1.00102 1.09513 2.68594 0.939634 -0.191537 0.283551 33 25 20
0.507707 -0.495306 3.51647 0.00286208 -0.000774622 0.999996 88 69 44
0.515923 -0.505495 3.51267 0.0378709 -0.00245076 0.99928 168 139 97
0.495553 -0.510248 3.51304 0.0287198 0.00522912 0.999574 174 144 98
0.48465 -0.491387 3.51531 0.0319427 0.00620896 0.99947 60 42 20
0.473293 -0.50842 3.51154 0.00849091 -0.123081 0.99236 156 128 87
0.462381 -0.489528 3.51378 -0.0094997 -0.00394037 0.999947 45 29 11
0.442039 -0.503325 3.51175 -0.0733835 -0.0216328 0.997069 101 79 51
0.418958 -0.50051 3.50751 -0.0868185 -0.0257087 0.995892 103 79 48
0.132668 -0.525137 3.48455 -0.0800628 -0.193165 0.977894 41 26 11
0.113095 -0.530693 3.48033 -0.16889 -0.617104 0.768543 61 42 23
0.0914628 -0.518172 3.47721 -0.368025 -0.604079 0.706857 17 7 1
0.00837351 -0.524258 3.46627 -0.165607 -0.0527633 0.984779 15 6 1
-0.0139441 -0.524271 3.46239 -0.17423 -0.26417 0.948608 13 5 1
-0.0373087 -0.523914 3.45646 -0.144684 -0.0583479 0.987756 12 5 1
-0.0605765 -0.516329 3.44933 -0.127707 -0.0388916 0.991049 9 4 1
-0.0724387 -0.494659 3.44675 -0.182353 -0.0582918 0.981504 7 2 0
-0.0830072 -0.516213 3.44684 -0.105864 -0.0317807 0.993873 9 4 0
-0.109592 -0.536533 3.45599 -0.0833584 -0.636196 0.767011 13 5 1
-0.149925 -0.531373 3.45207 -0.102878 -0.738441 0.666424 9 3 1
-0.158747 -0.516083 3.44151 -0.18044 -0.0576667 0.981894 7 2 0
-0.181224 -0.516746 3.43745 -0.160455 -0.0503604 0.985758 7 2 0
-1.02902 -0.300988 3.21175 0.666697 -0.546873 0.506403 159 138 91
-1.03856 -0.393601 3.25511 -0.0194818 -0.775014 0.631644 155 133 94
-1.08771 -0.380424 3.24628 0.106745 -0.781705 0.614445 34 22 14
-1.1041 -0.39806 3.24946 0.242506 -0.726415 0.643049 6 1 1
-1.12517 -0.384973 3.26137 -0.0633384 -0.813707 0.577814 3 0 1
-1.14357 -0.396125 3.25456 -0.0214933 -0.676939 0.735725 0 0 0
-1.16806 -0.388801 3.24825 -0.192444 -0.667602 0.719217 0 0 0
1.14119 2.37981 2.00502 0.919606 -0.390471 -0.0430958 19 13 8
1.12253 2.3211 2.03551 0.905522 -0.360352 0.223999 21 15 11
1.11508 2.24513 2.09422 0.95158 -0.257938 0.167226 24 17 14
1.10269 1.99129 2.21532 0.841587 -0.129016 0.524486 26 18 16
1.06337 1.77585 2.34988 0.909728 -0.189393 0.369494 23 17 14
1.04375 1.73746 2.34849 0.919625 -0.18409 0.346989 26 18 15
1.01465 1.69952 2.36368 0.93434 -0.178201 0.30863 27 20 17
-1.04034 -0.30697 3.23216 0.397889 -0.767648 0.502395 156 135 89
-1.05328 -0.346272 3.26374 0.454587 -0.822641 0.341485 150 129 91
-1.07087 -0.350052 3.27358 0.31609 -0.862758 0.394635 147 124 88
-1.07627 -0.342515 3.25533 0.280859 -0.829996 0.481896 133 112 82
-1.10352 -0.372366 3.27793 0.318255 -0.697956 0.641539 56 41 27
-1.08934 -0.360625 3.26711 0.298942 -0.791392 0.533229 96 78 56
-1.11906 -0.390504 3.278 0.535277 -0.437662 0.722448 8 2 1
-1.10544 -0.379318 3.27141 0.256825 -0.730449 0.632839 31 18 11
-1.14263 -0.384034 3.28069 0.217273 -0.740185 0.636333 2 0 0
-1.14368 -0.381125 3.26955 -0.17722 -0.804852 0.566397 1 0 0
-1.16597 -0.378631 3.26281 -0.331402 -0.704019 0.628116 0 0 0
-1.16426 -0.384371 3.26294 0.708281 -0.700361 0.0885066 0 0 0
1.14793 2.39641 2.03809 0.911722 -0.405586 -0.0652914 15 9 6
1.12859 2.38572 2.02551 0.950352 -0.278572 0.138667 18 12 8
1.11843 2.31972 2.06162 0.658659 -0.731094 0.177961 22 15 12
1.11226 2.18545 2.14794 0.948364 -0.241656 0.205447 26 19 16
1.09378 2.08436 2.18233 0.898558 -0.18529 0.397821 27 19 18
1.09716 1.95296 2.27398 0.697106 -0.0928677 0.710928 24 15 15
1.09396 1.9945 2.24887 0.894802 -0.170608 0.412581 24 16 15
1.08719 1.97898 2.24856 0.809976 -0.34917 0.471189 24 16 14
1.033 1.70205 2.39824 0.9243 -0.189528 0.331282 28 20 18
1.05969 1.46125 2.53815 0.805935 -0.104929 0.582631 25 18 15
1.00422 1.02571 2.77341 0.930942 -0.328148 0.160207 36 26 21
1.03072 0.818551 2.90418 0.942169 -0.20291 0.26673 43 33 27
0.454531 -0.185306 3.39373 -0.0849148 -0.0251845 0.99607 167 136 93
0.442722 -0.204026 3.38883 -0.0171932 -0.33812 0.940946 77 57 35
-1.05234 -0.252939 3.24486 0.689682 -0.629889 0.357182 143 124 85
-1.07054 -0.350233 3.27779 0.431244 -0.834707 0.342481 147 124 87
-1.07285 -0.331658 3.28807 0.841705 -0.53178 0.0934994 145 122 82
-1.08928 -0.348092 3.28695 0.419955 -0.792174 0.442829 131 109 77
-1.10747 -0.358174 3.27994 0.291937 -0.837656 0.461633 64 48 32
-1.12428 -0.367994 3.29289 0.0934951 -0.816469 0.56977 27 15 8
-1.14033 -0.384579 3.29312 0.233435 -0.559465 0.795303 3 1 1
-1.17628 -0.387267 3.28273 0.780878 -0.614125 0.114368 0 0 0
1.13897 2.40123 2.05408 0.948487 -0.303086 0.0922536 16 10 7
1.12618 2.33244 2.07631 0.912707 -0.363095 0.187422 19 13 10
1.12796 2.40088 2.042 0.950727 -0.284885 0.122308 17 11 8
1.09895 2.01792 2.25031 0.561079 -0.0733578 0.824506 26 17 16
1.0713 1.99994 2.2715 0.661514 -0.126841 0.739128 22 14 12
1.07149 1.71987 2.42333 0.841032 -0.200943 0.502281 26 19 15
1.03914 1.74137 2.41004 0.854722 -0.135517 0.501084 30 22 19
-0.0925122 -0.28525 3.39471 -0.0810638 -0.198793 0.976683 39 29 19
-0.114997 -0.283242 3.39122 -0.101487 -0.326711 0.93966 39 28 17
-1.04191 -0.207169 3.22888 0.910005 -0.408319 -0.0718836 160 140 96
-1.08956 -0.337583 3.30479 0.379515 -0.860077 0.340935 151 127 87
-1.10634 -0.35151 3.30285 0.258758 -0.885582 0.385731 110 90 63
-1.12689 -0.344244 3.30587 0.437365 -0.62966 0.642059 70 53 37
-1.16161 -0.370532 3.30406 -0.074046 -0.635649 0.768419 2 0 1
1.12025 2.36785 2.07732 0.858567 -0.50999 -0.0526588 18 12 9
1.10331 2.30725 2.11453 0.940332 -0.310616 0.138901 22 15 11
1.10204 2.29202 2.13069 0.566635 -0.801156 -0.192547 24 16 14
1.09252 2.27486 2.13603 0.826948 -0.547032 0.130051 26 18 15
1.10464 2.05112 2.25366 0.290781 -0.0855545 0.952957 27 20 17
1.09691 2.04684 2.27624 0.276413 -0.180659 0.943906 26 19 16
1.07563 2.03818 2.2702 0.571364 -0.072953 0.817448 23 15 13
1.06627 1.86142 2.36251 0.921732 -0.186479 0.340053 25 17 14
1.05376 1.73594 2.4439 0.677252 -0.0832218 0.73103 28 20 17
1.04844 1.69247 2.44725 0.902536 -0.167447 0.396724 29 21 18
1.03433 1.64432 2.48829 0.748435 -0.0968051 0.656105 32 23 21
1.07169 1.42854 2.61384 -0.154538 -0.87287 0.462834 27 20 17
1.0944 1.31379 2.68299 0.888954 -0.108829 0.444878 23 16 13
1.08464 1.37278 2.6325 0.87908 -0.143657 0.454512 22 15 13
1.01621 1.04266 2.82248 0.707344 -0.365565 0.605002 26 19 15
1.01764 0.969461 2.86848 0.811768 -0.222096 0.540099 31 23 19
0.398744 -0.0722797 3.36104 -0.0125391 -0.282174 0.959281 141 105 61
0.21128 -0.0761266 3.34858 0.00768542 -0.570363 0.821357 225 179 114
0.191998 -0.0849257 3.34193 -0.0725636 -0.487962 0.869843 229 185 121
0.181396 -0.0866074 3.33991 -0.060203 -0.488678 0.870385 231 186 123
0.162856 -0.0796682 3.34886 -0.0128466 -0.579241 0.815055 225 177 111
0.141908 -0.0830236 3.33545 -0.0481109 -0.630999 0.774291 231 186 120
-0.894381 -0.39551 3.37664 -0.611118 -0.319029 0.7244 71 51 25
-0.857962 -0.491955 3.45373 -0.621689 -0.329969 0.710368 85 65 45
-0.865509 -0.467185 3.42371 -0.511698 -0.233234 0.826902 81 61 39
-1.09594 -0.308188 3.30104 0.744107 -0.660427 0.100702 144 121 85
-1.10654 -0.342134 3.32214 0.34503 -0.87512 0.339293 137 115 79
-1.11234 -0.314996 3.31927 0.806292 -0.577817 0.126574 143 121 85
-1.12658 -0.336899 3.32578 0.460794 -0.855631 0.235719 122 99 71
1.12748 2.42947 2.08919 0.946839 -0.237194 0.217338 18 11 9
1.11467 2.39916 2.08464 0.948179 -0.305007 0.0890353 17 12 8
1.11327 2.31953 2.14625 0.951338 -0.26624 0.15515 18 11 7
1.09575 2.26761 2.15999 0.949235 -0.242587 0.200262 26 18 15
1.08649 2.16562 2.22074 0.924474 -0.212463 0.316554 27 20 17
1.091 2.04278 2.29638 0.402664 -0.0750184 0.912269 24 16 14
1.0933 2.05666 2.28649 0.893991 -0.20354 0.399189 25 17 15
1.04736 1.86605 2.3796 0.94688 -0.242774 0.2109 27 20 16
1.06254 1.75988 2.43896 -0.433968 -0.893879 -0.112478 29 21 17
1.04105 1.70125 2.48486 0.891455 -0.158577 0.424455 32 24 21
1.03418 1.68795 2.49715 0.900442 -0.16574 0.402161 32 23 21
1.07505 1.26621 2.73103 0.836153 -0.170879 0.521199 26 19 16
1.02853 1.06513 2.82332 0.760612 -0.149046 0.631865 23 17 12
1.01067 0.990319 2.884 0.73629 -0.456374 0.499599 33 25 20
1.00251 0.879042 2.9245 0.911931 -0.198488 0.359145 38 29 24
0.814832 0.440958 3.16217 0.936356 -0.208028 0.282775 227 197 140
0.633872 -0.01381 3.38858 0.380454 -0.650485 0.657361 222 178 113
0.421932 -0.0524555 3.37911 0.14051 -0.433172 0.890291 195 153 96
0.321964 -0.056894 3.37369 -0.0593115 -0.625965 0.777593 203 158 94
0.242839 -0.0529084 3.36846 -0.100655 -0.659902 0.744579 235 198 134
0.223006 -0.0601538 3.35924 0.0380191 -0.481729 0.875495 217 176 110
0.201053 -0.060112 3.36008 -0.011959 -0.638825 0.769259 219 180 112
0.182341 -0.0713644 3.356 0.0247794 -0.555049 0.831449 208 163 95
0.162708 -0.061035 3.36115 0.00421377 -0.563785 0.82591 230 189 117
0.143675 -0.0707595 3.35547 -0.0575216 -0.502657 0.86257 202 155 89
0.143911 -0.0715589 3.35658 0.0100712 -0.567246 0.823487 202 156 89
0.124811 -0.0627323 3.36322 -0.0117867 -0.652525 0.757675 237 197 128
0.105656 -0.0722177 3.35704 0.100507 -0.534274 0.839315 213 171 110
0.0861898 -0.0806472 3.35052 0.149037 -0.44977 0.880622 206 163 105
0.0630152 -0.0798455 3.35366 0.0143972 -0.563653 0.825886 192 150 94
-0.859002 -0.421846 3.42395 -0.613606 -0.321537 0.721181 113 89 60
-0.875296 -0.447801 3.43122 -0.620887 -0.329174 0.711437 77 57 30
-1.06602 -0.074254 3.20469 -0.652308 -0.489632 0.57858 164 140 99
1.12667 2.43005 2.09497 0.938178 -0.230083 0.258619 15 10 7
1.12431 2.36681 2.14326 0.939505 -0.23152 0.252444 20 14 11
1.12547 2.4224 2.11781 0.914395 -0.213671 0.343842 18 12 9
1.10773 2.28653 2.19253 0.884675 -0.448674 -0.126655 23 16 12
1.09036 2.24935 2.19336 0.92743 -0.373568 -0.0179299 26 19 15
1.09135 2.19767 2.24226 0.933851 -0.357609 0.00616564 27 19 15
1.07191 1.92289 2.39064 0.819746 -0.119953 0.560025 25 17 13
1.0566 1.90679 2.37997 0.933767 -0.202564 0.295038 25 18 14
1.05895 1.82601 2.44228 0.946744 -0.238779 0.216009 28 20 18
1.06099 1.82726 2.44196 0.916418 -0.33263 0.222566 27 20 17
1.05326 1.68312 2.50533 0.438621 -0.0978039 0.893334 31 22 19
1.03389 1.68999 2.50988 0.841658 -0.325129 0.431165 32 25 21
1.03118 1.68024 2.51502 0.949698 -0.266557 0.164381 34 26 23
1.01848 1.67521 2.52625 0.897601 -0.295868 0.326765 37 28 26
1.00258 1.65955 2.52721 0.548544 -0.649853 0.526109 37 28 26
1.06703 1.31882 2.73176 0.794849 -0.0366813 0.605698 26 19 16
1.06123 1.28822 2.73591 0.888617 -0.12694 0.440735 27 20 16
1.02152 0.996112 2.89254 0.854654 -0.177942 0.487753 30 22 18
0.995632 0.900658 2.95043 0.874144 -0.269547 0.404002 43 32 26
1.07525 0.394359 3.25445 0.780877 -0.546655 0.302322 150 122 78
0.656596 0.195419 3.31145 0.616319 0.0147438 0.787359 217 179 116
0.642937 0.0342416 3.38737 0.930174 -0.355343 0.0922366 225 186 126
0.632778 0.00470328 3.4017 0.527007 -0.549696 0.64815 233 191 128
0.616019 -0.0105902 3.40117 0.0996119 -0.775075 0.623968 250 207 139
0.460312 -0.0299501 3.39032 -0.0433156 -0.640119 0.767054 248 210 142
0.459902 -0.0155747 3.4068 0.0437624 -0.893355 0.447216 231 186 117
0.440837 -0.0237284 3.39879 0.21108 -0.792974 0.571522 243 201 132
0.421071 -0.0312111 3.3891 -0.00483118 -0.580823 0.814016 214 171 110
0.402474 -0.0276705 3.40107 -0.00884153 -0.808012 0.5891 226 180 115
0.382859 -0.0342963 3.39199 0.0636812 -0.764292 0.641719 241 196 130
0.363246 -0.0313553 3.39811 0.192366 -0.897678 0.396446 245 199 129
0.34226 -0.0344991 3.39974 0.0758314 -0.90669 0.414926 238 191 121
0.343509 -0.0375247 3.38909 0.166045 -0.696543 0.698038 237 190 121
0.322696 -0.0424876 3.39152 -0.0991198 -0.665308 0.739959 212 168 105
0.302572 -0.0491103 3.38186 -0.102253 -0.674805 0.730878 158 116 63
0.283084 -0.0402807 3.38935 0.041736 -0.817431 0.574512 193 151 96
0.262813 -0.0458079 3.37795 -0.124329 -0.604885 0.786547 177 138 83
0.244785 -0.0417239 3.3891 0.0416164 -0.913787 0.404056 246 202 133
0.224663 -0.0440377 3.3765 0.0172997 -0.771597 0.635876 249 214 143
0.201335 -0.0448435 3.37711 0.101737 -0.810971 0.576173 249 213 140
0.181969 -0.0527748 3.3689 0.0208243 -0.706462 0.707444 247 211 138
0.159943 -0.039953 3.36181 -0.107677 -0.310366 0.944499 250 212 137
0.144018 -0.0536081 3.3695 0.0156334 -0.584441 0.811286 248 206 134
0.125703 -0.047715 3.37977 0.053903 -0.807883 0.586873 241 194 123
0.105612 -0.0550197 3.37155 0.0628861 -0.807799 0.586094 249 210 139
0.076752 -0.0645591 3.36318 0.174892 -0.801352 0.572055 229 190 127
0.0460316 -0.0687304 3.37491 0.119102 -0.795196 0.59454 239 198 134
-0.165707 -0.0858568 3.35947 0.0497716 -0.808685 0.586132 223 180 115
-0.203541 -0.0861958 3.3595 0.112229 -0.8378 0.534318 221 179 116
-0.240957 -0.0908679 3.3569 0.086225 -0.815874 0.571765 197 155 97
-1.06103 -0.0744605 3.23842 -0.272473 -0.665946 0.69446 153 131 93
-1.24712 -0.349256 3.37547 0.898996 -0.332406 0.285153 0 0 0
1.13173 2.41904 2.13863 0.934902 -0.225874 0.273751 19 12 10
1.13504 2.45995 2.11851 0.923549 -0.216168 0.316747 17 9 8
1.11631 2.34114 2.18236 0.948588 -0.302554 0.0929584 18 12 8
1.08292 2.09693 2.3018 0.71387 -0.174613 0.678159 25 18 15
1.05598 1.9076 2.42453 0.781194 -0.105928 0.615236 28 20 17
1.06136 1.91236 2.421 0.787342 -0.107846 0.607011 26 19 16
1.04531 1.814 2.45619 0.944149 -0.22386 0.241805 29 21 18
1.02101 1.81745 2.45198 0.921939 -0.287206 0.259887 31 23 19
1.02343 1.80109 2.47526 0.835877 -0.506386 0.211855 30 23 19
1.03651 1.69402 2.53791 0.607991 -0.260431 0.750015 32 24 21
1.00336 1.66229 2.5543 0.664495 -0.473823 0.577874 38 29 26
1.08889 1.32431 2.73565 0.888344 -0.116297 0.444207 25 18 15
0.628262 0.0356261 3.40306 0.9084 -0.405949 0.100077 219 177 116
0.614745 0.00687155 3.41477 0.253327 -0.705365 0.662032 227 181 116
0.421706 -0.0202856 3.40943 0.0725407 -0.901863 0.425888 224 178 109
0.381471 -0.0228176 3.40443 0.116796 -0.887611 0.44554 233 185 114
0.341527 -0.0164427 3.41383 0.168155 -0.917647 0.360066 235 188 118
0.323311 -0.0274566 3.40936 0.0756976 -0.978942 0.189587 244 198 129
0.303464 -0.0352044 3.40104 -0.0483164 -0.855782 0.515076 242 197 130
0.282074 -0.0254992 3.40568 -0.108919 -0.943069 0.314256 243 198 125
0.282742 -0.0248882 3.40697 -0.12172 -0.94057 0.317036 243 198 125
0.264214 -0.0361771 3.40048 0.0910418 -0.902592 0.42076 243 197 125
0.220941 -0.026123 3.40437 0.169574 -0.917026 0.360981 248 208 133
0.20066 -0.0297704 3.39244 0.0805439 -0.823405 0.561709 239 194 121
0.182458 -0.040695 3.38808 0.117982 -0.915677 0.384208 240 195 122
0.144867 -0.0384477 3.38588 0.0851714 -0.933741 0.347669 244 196 123
0.162488 -0.0347038 3.39558 0.127533 -0.898892 0.419201 243 200 128
0.125934 -0.0354074 3.3987 0.0336407 -0.816617 0.576199 236 202 130
0.105005 -0.0399484 3.38709 0.0824141 -0.91541 0.393996 234 190 118
0.0767055 -0.0515982 3.38093 0.136642 -0.873053 0.46809 241 195 124
0.00712933 -0.0708946 3.38127 0.10888 -0.802513 0.586616 159 117 69
-0.010357 -0.0689554 3.39984 0.188203 -0.92813 0.321176 203 160 107
-0.0886928 -0.0662649 3.37627 0.0097986 -0.956892 0.29028 172 130 76
-0.10751 -0.07416 3.36883 0.0596879 -0.862472 0.502573 194 155 96
-0.12702 -0.0697467 3.37778 0.102431 -0.903648 0.415846 158 117 67
-0.146359 -0.0753058 3.36742 0.10011 -0.882569 0.459402 183 142 84
-0.184776 -0.0791263 3.36834 0.0772717 -0.887072 0.455117 181 139 82
-0.165758 -0.0725875 3.37727 0.0724661 -0.957495 0.279199 155 114 63
-0.203527 -0.0764688 3.38014 0.231685 -0.870674 0.433876 155 112 60
-0.222729 -0.0828106 3.36929 0.137639 -0.895278 0.423714 187 145 87
-0.241791 -0.0876489 3.35876 0.0729986 -0.807991 0.584655 195 152 95
-0.262246 -0.0822735 3.36303 0.00572827 -0.901374 0.433002 194 151 95
-0.383494 -0.0367545 3.33079 -0.455076 -0.85521 0.248034 164 123 70
-0.987712 -0.248933 3.36206 0.199219 -0.87551 0.440219 136 115 81
-1.23178 -0.329982 3.38806 0.807756 -0.544979 0.224784 3 0 1
1.13181 2.43518 2.16437 0.885975 -0.446839 -0.124033 15 9 6
1.12279 2.37986 2.18286 0.914169 -0.380435 0.13987 17 11 8
1.09067 2.38346 2.1879 0.8862 -0.425973 0.182198 17 10 7
1.05712 2.09819 2.33986 0.863129 -0.159402 0.479165 25 16 14
1.04772 2.08354 2.3398 0.78948 -0.108594 0.604093 27 17 15
1.06007 1.95098 2.42257 0.779216 -0.105352 0.617837 27 19 16
1.03324 1.85278 2.45882 0.719365 -0.66608 -0.197107 27 19 16
1.03329 1.80042 2.49925 0.521095 -0.819225 0.239438 27 20 16
1.01802 1.68628 2.55735 0.873302 -0.35899 0.329348 34 26 22
0.649988 0.0661429 3.42624 0.921531 -0.365953 0.129839 248 210 150
0.616052 0.0443461 3.44251 0.862294 -0.482339 0.154264 221 181 121
0.344223 -0.0248655 3.44654 0.0235743 -0.926202 0.37629 216 174 109
0.364323 -0.0316973 3.43784 0.534412 -0.720227 0.442354 238 196 128
0.324384 -0.0269288 3.43596 -0.0970941 -0.986069 0.135059 225 181 117
0.303239 -0.0226199 3.41982 0.141534 -0.987793 0.0650606 232 188 121
0.281846 -0.0185927 3.42586 -0.24072 -0.962324 0.126434 242 206 138
0.261936 -0.0185148 3.41284 -0.264837 -0.95149 0.156615 249 213 140
0.220571 -0.0167726 3.42344 0.0937788 -0.987386 0.127571 237 205 135
0.202286 -0.02504 3.41564 -0.0304486 -0.87778 0.478096 248 215 143
0.143693 -0.0327172 3.40702 0.226617 -0.787193 0.573561 249 221 149
0.161165 -0.0239204 3.41174 0.125386 -0.720408 0.682122 247 218 147
0.125979 -0.0226942 3.41708 0.0205308 -0.785264 0.618821 246 221 150
0.0895831 -0.0407953 3.4051 0.154975 -0.985841 0.0640384 238 207 136
0.00629636 -0.056139 3.39748 0.148571 -0.952123 0.267187 219 176 115
-0.0114992 -0.0575047 3.41706 0.131965 -0.980977 0.142373 224 182 113
-0.0696052 -0.0526987 3.40731 0.145498 -0.902174 0.406093 237 206 139
-0.0876967 -0.0608229 3.40051 0.162268 -0.966134 0.200633 200 161 102
-0.107963 -0.0634147 3.38708 0.0893981 -0.881979 0.462733 155 112 62
-0.125965 -0.0640131 3.4021 0.113516 -0.979335 0.167383 199 154 94
-0.147049 -0.0668183 3.38588 0.0953289 -0.87958 0.466103 155 113 65
-0.164998 -0.066191 3.4008 0.0469693 -0.961068 0.272289 201 156 94
-0.1846 -0.0696272 3.3887 0.0818444 -0.931565 0.354243 155 113 60
-0.20294 -0.0686487 3.40211 0.172384 -0.927692 0.331166 206 161 100
-0.222558 -0.0736076 3.38959 0.171193 -0.946817 0.272452 174 132 77
-0.241901 -0.0794813 3.37915 0.288754 -0.896568 0.335839 180 138 83
-0.241661 -0.0723307 3.39935 0.10209 -0.992193 0.0716307 175 133 76
-0.262446 -0.073806 3.38305 0.15316 -0.973153 0.1718 185 142 89
-0.960861 -0.259294 3.39003 0.721612 -0.631392 0.283937 95 77 52
-1.04781 -0.0829041 3.28423 -0.507459 -0.440306 0.740687 155 133 93
-1.2505 -0.321508 3.40902 0.33236 -0.846611 0.415675 0 0 0
1.12695 2.41846 2.19537 0.824785 -0.52013 -0.2218 14 8 4
1.1104 2.39277 2.19668 0.78633 -0.604099 0.129421 16 9 6
1.07649 2.38177 2.21037 0.846428 -0.502762 0.175473 20 12 9
1.04297 2.05346 2.38871 0.753219 -0.0981121 0.650411 27 19 16
1.03034 2.04557 2.3762 0.792477 -0.109527 0.599987 27 20 17
1.03307 1.8407 2.50611 0.884101 -0.402032 0.238193 27 20 16
1.03927 1.75722 2.55637 0.940403 -0.309826 0.140179 29 22 17
1.00849 1.73374 2.56831 0.856109 -0.433465 0.281399 33 25 21
1.01088 1.72112 2.57603 0.644046 -0.359918 0.675029 33 25 21
0.998904 1.68936 2.57608 0.467179 -0.488296 0.737096 37 28 24
1.01558 0.82687 3.05949 0.937557 -0.228943 0.261863 49 34 23
0.662778 0.104682 3.42461 0.9248 -0.373008 0.0749006 242 205 148
0.351874 -0.0618844 3.48931 -0.489205 -0.79843 0.350981 235 191 122
0.326819 -0.0334129 3.46522 -0.0623665 -0.858668 0.508724 212 168 104
0.302295 -0.0209933 3.44603 0.126652 -0.991946 0.00186172 196 154 92
0.268266 -0.0434216 3.46795 -0.398 -0.917384 0.00174698 235 197 128
