ply
format ascii 1.0
element vertex 749
property float x
property float y
property float z
property float nx
property float ny
property float nz
property uchar diffuse_red
property uchar diffuse_green
property uchar diffuse_blue
end_header
-0.03131 0.0428391 1.63907 0.925351 0.111723 0.362275 7 5 3
-0.0318628 0.0425595 1.63831 0.983521 -0.114952 0.139542 9 6 4
-0.0207701 0.0601191 1.63373 0.983287 0.00929035 0.181826 15 10 7
-0.031518 0.0435979 1.63984 0.892585 -0.112136 0.436713 8 5 3
-0.0310907 0.0426579 1.63984 0.929776 0.320978 0.180251 6 4 2
-0.0310519 0.0421168 1.64075 0.911782 -0.132234 0.388804 5 3 1
-0.0111192 0.133875 1.59844 0.992933 0.0369303 0.112781 2 1 0
-0.0114482 0.131997 1.59877 0.981699 -0.0728701 0.175943 1 0 0
-0.0111034 0.131512 1.59959 0.979029 0.110886 0.170899 5 3 2
-0.0317856 0.0427399 1.6408 0.91382 -0.137232 0.38223 6 3 2
-0.0307034 0.0427796 1.6413 0.914305 -0.115235 0.388287 5 3 1
-0.021017 0.0610288 1.63473 0.97716 0.0716369 0.200064 15 9 7
-0.0318314 0.0433575 1.64247 0.977935 -0.0697418 0.196925 6 4 2
-0.0318222 0.042697 1.64161 0.955836 -0.0630658 0.287055 6 3 2
-0.0121385 0.136908 1.59819 0.746378 0.660109 -0.0847105 1 0 1
-0.0124794 0.133494 1.60032 0.908388 0.416116 0.040984 1 0 0
-0.0115813 0.132311 1.60083 0.936891 0.316527 0.14848 6 3 2
-0.0178349 0.0833282 1.62531 0.984327 0.175223 0.0199326 9 4 2
-0.0216434 0.0610284 1.63596 0.980918 0.0232951 0.193021 15 8 6
-0.0313119 0.0436108 1.64324 0.983447 -0.0827753 0.161185 6 4 2
-0.0116557 0.133024 1.60162 0.974938 0.133651 0.177855 5 2 2
-0.0314635 0.0441483 1.64412 0.979573 -0.151171 0.132605 6 4 2
-0.0112601 0.133998 1.60206 0.93098 0.0986699 0.351484 2 1 0
-0.0324383 0.0457278 1.64433 0.92036 -0.147233 0.362298 8 5 3
-0.0321267 0.0450561 1.6451 0.961234 -0.203137 0.186455 8 5 3
-0.0193349 0.0828109 1.62835 0.834048 0.545333 -0.0835236 22 14 12
-0.0195736 0.0828783 1.62916 0.861699 0.403236 0.30802 18 11 8
-0.0217738 0.0614591 1.63985 0.994397 0.10569 0.0020496 19 13 10
-0.0243556 0.0597623 1.6419 0.983568 0.176411 0.0383941 4 2 1
-0.0196553 0.083012 1.63133 0.928326 0.327843 0.175299 18 11 8
-0.0171676 0.101529 1.62264 0.883969 0.263442 0.386261 7 2 1
-0.0220836 0.0661346 1.6413 0.966274 -0.0260848 0.25619 14 8 6
-0.0232743 0.0636471 1.64179 0.970721 -0.0994663 0.21865 12 7 4
-0.0240261 0.0610519 1.64311 0.8048 0.231459 -0.546556 14 12 10
-0.0238215 0.0612261 1.64371 0.649331 0.760359 0.0149151 13 9 6
-0.0191023 0.104745 1.62218 0.841641 0.00638068 -0.54 6 1 1
-0.0225492 0.0772468 1.63644 0.983055 -0.0177227 0.182453 16 9 7
-0.0260765 0.0522732 1.64883 0.983509 0.134251 0.121189 0 0 0
-0.0224993 0.077567 1.63733 0.980787 0.0340624 0.192083 16 9 6
-0.0217081 0.0770003 1.63718 0.971172 0.0914786 0.220129 13 7 4
-0.0218472 0.0765024 1.63809 0.962879 -0.0603926 0.26309 9 3 1
-0.0168602 0.115988 1.61835 0.951266 -0.300283 -0.0701677 4 1 1
-0.0210861 0.0822683 1.63578 0.963939 0.0596681 0.25935 14 7 4
-0.0212354 0.0818861 1.63648 0.906857 -0.148023 0.394589 9 4 1
-0.0216925 0.0811718 1.63641 0.980549 0.00251041 0.19626 17 10 7
-0.0224277 0.077016 1.63831 0.976371 0.0236582 0.214804 11 6 3
-0.0221644 0.0769384 1.63905 0.925143 -0.00988418 0.379491 8 3 1
-0.0225556 0.0697794 1.64244 0.912501 -0.0380505 0.4073 5 2 1
-0.0231908 0.0683715 1.6427 0.89737 -0.0389669 -0.439555 10 5 3
-0.0219512 0.0831826 1.63622 0.987949 0.107133 0.111708 13 7 4
-0.0229751 0.069105 1.64343 0.97734 0.0657183 0.201215 10 6 4
-0.0172305 0.117041 1.61953 0.958851 -0.283525 -0.0147552 7 3 1
-0.0235833 0.0694219 1.64442 0.90024 0.367292 0.233807 9 4 2
-0.025781 0.0624567 1.64844 0.991997 -0.0119799 -0.12569 7 3 1
-0.0256585 0.0616906 1.64833 0.927552 -0.367994 -0.0650265 7 3 1
-0.0262807 0.0609005 1.6494 0.756708 0.161721 -0.633434 10 5 3
-0.0267515 0.0557586 1.65216 0.644132 0.639862 -0.419131 0 0 0
-0.0140123 0.110587 1.626 0.381249 0.521666 -0.763226 7 2 1
-0.00504388 0.110046 1.62826 0.427649 0.518219 -0.740652 6 1 1
-0.0260241 0.0572819 1.65276 0.645924 0.689448 -0.327787 0 0 0
0.0343644 0.0871846 1.64962 0.157229 0.95935 -0.234364 1 1 0
0.035786 0.0871963 1.65006 0.221338 0.964624 0.143214 2 1 0
0.0340719 0.0859605 1.64935 -0.178286 0.949283 -0.258989 0 0 0
0.0372482 0.0873804 1.64938 0.0321426 0.999248 0.0216679 1 0 0
0.0377481 0.086338 1.65013 0.0500471 0.972007 -0.229558 0 0 0
-0.0087498 0.113612 1.62593 0.258286 0.959557 -0.111974 10 3 1
-0.00655824 0.110867 1.62775 0.899991 0.153108 0.408135 6 1 1
-0.00757296 0.110355 1.62838 0.945524 -0.278149 -0.169166 6 1 0
-0.0268032 0.0579447 1.65265 0.453187 0.739515 -0.497735 3 2 2
0.0357462 0.087842 1.65047 0.202616 0.970499 0.130684 5 2 1
-0.0104598 0.117017 1.6252 0.939224 -0.107535 -0.326029 148 124 85
-0.0103653 0.1153 1.62644 0.968748 0.227439 0.098988 107 89 63
-0.00622507 0.110642 1.62992 0.957512 -0.132636 0.256081 14 6 2
-0.00654805 0.109535 1.62994 0.88138 0.292749 0.370766 17 9 5
-0.00984095 0.0918071 1.6392 0.746046 0.485185 0.456083 9 4 3
-0.0270378 0.0585401 1.65351 0.53717 0.763664 -0.358141 5 3 2
0.0354402 0.0888331 1.65074 0.399582 0.898992 -0.179296 17 10 4
0.035643 0.0883547 1.6513 0.405703 0.885988 -0.224566 36 25 12
0.0564511 0.0874824 1.65625 0.130541 0.432665 -0.892054 0 0 0
0.0589992 0.0876053 1.65658 0.448221 0.831997 -0.326924 1 1 1
-0.00832425 0.114651 1.62823 0.728086 0.44466 -0.521698 146 119 80
-0.0062051 0.110372 1.63071 0.827581 0.143723 0.542636 19 9 4
-0.0178595 0.0979388 1.63539 0.122655 0.859103 -0.496887 84 64 35
-0.0184797 0.0980022 1.63488 0.176771 0.649792 -0.739272 89 70 42
-0.0151094 0.0981896 1.63579 0.354689 0.505774 -0.786377 94 70 37
-0.0120944 0.0985545 1.63649 0.676519 0.364844 -0.639696 122 98 63
-0.00928341 0.0914611 1.64094 0.72661 0.537676 0.427719 11 4 3
0.0352532 0.088353 1.65212 0.478 0.868143 -0.133585 119 100 66
0.0361158 0.0880849 1.6524 0.318116 0.947671 -0.0268869 124 105 68
-0.0147519 0.138635 1.61375 0.993009 0.0169389 0.116821 4 1 1
-0.00647047 0.114627 1.62892 0.570853 -0.0780721 -0.817332 144 116 75
-0.00656993 0.114082 1.62951 0.62559 0.17048 -0.761298 156 130 90
-0.0154977 0.099746 1.63526 0.354821 0.191138 -0.915187 86 65 38
-0.0148378 0.0996061 1.63571 0.303093 0.404844 -0.862691 92 69 40
-0.0115455 0.0991945 1.63726 0.763418 0.128869 -0.632918 113 90 59
-0.0106923 0.098808 1.63785 0.812786 -0.176158 -0.55529 77 57 31
0.0249989 0.0888655 1.65086 0.164646 0.986332 -0.00635689 4 3 2
0.0344213 0.0889257 1.65253 0.376618 0.872475 -0.311362 144 120 80
0.0407415 0.0883151 1.65419 0.136587 0.403813 -0.904588 135 108 69
0.0570534 0.0879295 1.65745 0.469963 0.328564 -0.819256 11 7 5
-0.00539606 0.114973 1.63092 0.987079 -0.028367 0.157706 170 142 102
-0.011915 0.100003 1.63729 0.376366 0.619569 -0.688827 120 95 58
-0.0108192 0.0996316 1.63792 0.779132 -0.289081 -0.556225 93 71 40
-0.0115889 0.100211 1.63802 0.37693 0.602626 -0.703396 124 99 62
-0.0111749 0.100247 1.63788 0.411581 0.63711 -0.651684 125 100 64
0.024929 0.0881656 1.65165 0.0803316 0.905027 -0.417699 2 2 1
0.0308416 0.090898 1.65128 0.0893281 0.994959 -0.0455707 7 3 1
0.0345283 0.0897066 1.65301 0.351608 0.74741 -0.563692 140 113 70
-0.0117174 0.100884 1.63808 0.287887 0.670028 -0.684239 114 88 53
-0.00942801 0.100877 1.6383 0.673252 -0.24917 -0.696166 121 97 61
-0.0105428 0.101189 1.63855 0.370608 0.777748 -0.507698 105 80 47
0.0421689 0.131749 1.63249 0.268693 0.864783 -0.424211 12 7 4
-0.014834 0.143475 1.61446 0.987615 0.0691015 0.140863 2 0 0
0.0416188 0.132206 1.63226 0.27957 0.941656 -0.187414 8 4 3
0.00580188 0.092265 1.64836 0.509495 0.515597 -0.688894 119 98 66
-0.0148078 0.14226 1.61652 0.994258 0.0251652 0.104011 6 2 2
-0.00617296 0.114797 1.63433 0.9242 -0.358199 0.132469 190 161 116
-0.00573037 0.115007 1.63393 0.981319 -0.0416666 0.18782 191 159 112
0.056475 0.0920252 1.65915 0.654835 0.636498 -0.407506 106 82 53
-0.00333373 0.129452 1.62745 0.988962 0.0152406 -0.147383 188 156 114
-0.0064766 0.115114 1.63513 0.966325 -0.190387 0.173115 192 163 120
0.0440191 0.0921908 1.65786 0.130824 0.947794 -0.290813 112 84 49
0.0644411 0.0906724 1.66306 0.61336 -0.047782 -0.788357 190 164 108
-0.0158328 0.141669 1.61825 0.990354 0.0326007 0.134668 6 2 2
-0.0159753 0.138366 1.61997 0.977 -0.0216154 0.212143 7 2 1
-0.0163657 0.138443 1.62032 0.798697 -0.326991 0.505134 4 1 0
-0.013767 0.135863 1.62209 0.174553 0.63965 -0.748584 122 101 66
0.0199265 0.0942882 1.65309 0.251017 0.610084 -0.751524 102 78 48
0.0375139 0.0929683 1.65728 0.29093 0.79651 -0.530029 80 58 32
-0.0154326 0.143046 1.61862 0.998547 0.00441077 0.0537007 7 3 2
-0.0154028 0.143063 1.61863 0.998685 0.00563252 0.0509582 7 3 2
-0.0153992 0.143065 1.61863 0.9987 0.00508994 0.0507218 7 3 2
-0.0157568 0.14253 1.61897 0.992409 0.0211099 0.121156 6 2 1
-0.0157873 0.142533 1.61899 0.991936 0.0241619 0.124416 6 2 1
-0.0158192 0.142508 1.61899 0.991383 0.0270873 0.128167 6 2 1
-0.0157944 0.142523 1.619 0.992191 0.0233809 0.12252 6 2 1
-0.0153313 0.140522 1.62069 0.858823 -0.236659 0.45433 3 1 0
0.0455207 0.128496 1.63941 0.0208343 0.956387 0.291359 42 27 14
-0.0171821 0.139278 1.62143 0.984856 0.154433 0.0787968 7 2 1
0.0421206 0.132273 1.6373 0.989661 -0.0742861 0.122688 117 91 60
0.0421396 0.131893 1.63801 0.971658 -0.0612183 0.228327 118 91 60
0.0420662 0.131012 1.63801 0.955637 -0.291971 0.0388677 103 78 50
-0.0159716 0.141197 1.62209 0.864195 -0.345164 0.3661 4 1 0
-0.00350214 0.137644 1.62662 0.664428 0.45793 -0.590623 126 99 59
0.0422537 0.134066 1.63726 0.968875 -0.0115572 0.24728 128 101 66
0.0421467 0.134943 1.63728 0.954504 -0.24754 0.16627 141 115 77
0.0418314 0.133536 1.63803 0.976116 -0.00490642 0.217196 135 109 73
0.0420032 0.132718 1.63802 0.977953 0.14491 0.150361 131 104 69
0.0421102 0.132297 1.63874 0.903305 0.351488 0.245958 126 99 66
0.0418467 0.130665 1.63923 0.723703 0.176445 0.667174 92 71 49
0.0419807 0.130153 1.63986 0.961539 -0.0939202 -0.258111 81 61 41
0.0337423 0.0979601 1.6569 0.933637 -0.110645 -0.340705 67 51 28
-0.0153045 0.144 1.6222 0.855903 -0.354786 0.376242 3 1 0
-0.0154874 0.143209 1.62236 0.544097 0.426597 0.722477 5 1 0
-0.0172816 0.140172 1.62405 0.952881 0.174213 -0.24833 49 32 15
-0.0164834 0.138973 1.62486 0.874371 0.348833 -0.33733 141 120 82
-0.0168388 0.139195 1.62414 0.833268 0.388305 -0.393553 114 94 66
0.0415221 0.135255 1.6381 0.965385 -0.249592 0.0757324 144 117 78
0.0419617 0.134508 1.63801 0.976117 0.0610174 0.2085 140 114 76
0.0415659 0.133903 1.63879 0.972105 -0.0523113 0.228639 124 99 63
0.0417265 0.133066 1.63874 0.936569 0.117713 0.330124 128 102 67
0.0415871 0.13264 1.63944 0.949161 0.110594 0.294725 117 91 57
0.0420322 0.131788 1.63946 0.81122 0.536813 0.231848 124 99 69
0.0421088 0.131357 1.64019 0.862938 0.491986 0.115271 109 84 58
0.0452762 0.129246 1.6418 0.343449 0.498193 -0.796145 115 88 51
0.0494265 0.127843 1.6435 0.971911 -0.228933 -0.054584 68 48 28
0.0526896 0.122916 1.64699 0.390369 0.157669 -0.907057 155 130 93
0.0336301 0.0982998 1.65796 0.541522 0.812371 -0.216349 78 58 33
0.0616338 0.11313 1.65478 0.93825 -0.345058 0.0249375 27 18 11
-0.0149495 0.143583 1.62327 0.722637 0.41373 0.553736 5 1 0
-0.0161293 0.142407 1.62326 0.927351 -0.267641 0.261514 6 1 0
-0.0173151 0.141347 1.6241 0.948357 0.177112 -0.263155 15 4 1
-0.0165779 0.139771 1.62481 0.775641 0.406982 -0.482439 136 114 79
0.0419537 0.134853 1.63874 0.928768 0.241173 0.281471 137 111 74
0.0419634 0.135612 1.63877 0.885426 0.0604193 0.460837 149 122 83
0.0415564 0.134503 1.63947 0.976636 0.0457773 0.209969 134 109 75
0.04146 0.133537 1.6395 0.990777 0.0854059 0.105196 129 104 69
0.04135 0.132869 1.64023 0.980929 0.136214 0.138651 129 102 67
0.041729 0.132097 1.64019 0.944233 0.297808 0.140482 121 95 63
0.0418492 0.13215 1.64019 0.932269 0.341789 0.118556 120 93 62
0.0456853 0.130362 1.64259 0.249668 0.629865 -0.735483 135 108 66
0.0493286 0.128766 1.6437 0.623905 0.682091 -0.381437 112 87 59
0.0499372 0.0959025 1.6628 0.326334 0.699597 -0.635665 106 81 50
-0.0160122 0.144664 1.62384 0.780621 0.00930508 0.624936 4 0 0
-0.01535 0.143616 1.62368 0.947146 -0.0352867 0.318856 6 1 0
0.0414716 0.135242 1.63956 0.902854 0.0779139 0.422829 127 101 64
0.0412709 0.134858 1.64022 0.965666 0.0565809 0.25355 111 85 51
0.0414311 0.134014 1.64022 0.984228 0.0693496 0.162747 130 104 71
0.0416175 0.132475 1.64092 0.951804 0.303887 -0.0415022 157 130 95
0.0419553 0.132162 1.64165 0.860032 0.50913 -0.0336391 157 127 85
0.0493038 0.128346 1.64512 0.992942 -0.0610302 0.101696 148 121 82
0.0497634 0.127791 1.64586 0.682735 -0.231484 -0.693028 152 128 88
0.0499277 0.0968927 1.66395 0.226382 0.660032 -0.716317 104 79 47
0.0667796 0.0976235 1.66642 0.394738 0.19326 -0.898239 124 98 61
-0.0170895 0.142592 1.62567 0.996923 0.050397 0.0600419 38 24 13
-0.015843 0.141138 1.62675 0.660296 0.353996 -0.662341 139 114 76
0.0409936 0.136949 1.63952 0.942414 0.0726699 0.32646 161 133 90
0.0409145 0.13725 1.63882 0.463801 0.670003 -0.579642 165 136 94
0.0412331 0.136068 1.63957 0.869663 0.23198 0.435743 151 123 82
0.0410126 0.135588 1.64027 0.915815 0.14467 0.374637 146 119 80
0.0416338 0.134186 1.64145 0.976175 0.192111 0.100871 120 93 59
0.0414109 0.133211 1.64149 0.985982 0.0658832 -0.153292 145 117 77
0.0430205 0.13208 1.64283 0.281386 0.229817 -0.931669 137 106 62
0.0495998 0.127807 1.64599 0.976999 -0.208457 -0.044926 154 128 88
0.0485713 0.127167 1.64668 0.94268 -0.308971 0.126066 142 116 78
-0.0173412 0.145618 1.62474 0.803364 -0.31307 0.50655 4 1 1
-0.016224 0.142159 1.62706 0.399903 0.630028 -0.66569 125 105 69
-0.0131991 0.142077 1.62742 0.234458 0.590988 -0.771857 133 111 73
-0.0118889 0.142571 1.62757 0.245409 0.625275 -0.740814 141 119 82
-0.00649242 0.143035 1.62847 0.182386 0.979425 -0.0863817 128 108 73
0.0410452 0.137875 1.63952 0.924424 0.240531 -0.295947 160 132 88
0.0410199 0.136538 1.64024 0.918527 0.0919127 0.384526 161 132 89
0.0411633 0.136563 1.64024 0.975262 0.0518178 0.214891 162 133 90
0.0408923 0.136073 1.64097 0.95455 0.0462672 0.294437 165 135 92
0.0432134 0.132968 1.64323 0.260602 0.281689 -0.923438 134 105 64
0.0428679 0.133402 1.64327 0.0712385 0.749263 -0.65843 115 87 48
0.0487595 0.128474 1.64644 0.270271 0.482006 -0.833441 161 136 95
0.0488327 0.127842 1.64755 0.968715 0.117848 0.218409 151 125 86
0.0565785 0.124381 1.65056 0.371257 0.751002 -0.546044 143 114 72
0.0570798 0.121662 1.65245 0.921845 -0.20174 0.330913 153 127 87
-0.0164445 0.14996 1.62324 0.871028 0.49108 -0.0122878 5 2 0
-0.0179111 0.145547 1.62627 0.98002 0.159775 -0.118461 8 3 2
-0.0173112 0.144567 1.62631 0.993911 0.0724142 0.0830543 14 6 2
-0.00678411 0.143526 1.62886 0.316291 0.940517 -0.124045 122 103 68
0.0408253 0.137905 1.64102 0.90068 0.215279 0.3774 170 141 97
0.0409866 0.137028 1.64094 0.86506 -0.0916784 0.49322 165 135 92
0.0410015 0.134123 1.64322 0.491971 0.769913 -0.406447 123 95 59
0.0431459 0.133912 1.64398 0.184472 0.795992 -0.576513 122 95 58
0.0564916 0.12478 1.65135 0.30591 0.826404 -0.472731 148 118 74
0.0570812 0.122505 1.65244 0.992031 0.0512276 0.115114 146 119 80
0.0594136 0.118568 1.6558 0.962174 -0.0892381 0.257404 148 122 85
-0.0167283 0.152544 1.62325 0.875367 -0.396568 -0.276524 1 0 0
-0.00882293 0.144237 1.62958 0.255429 0.849882 -0.460931 124 104 69
-0.00790317 0.143776 1.62959 0.555441 0.580685 -0.595222 117 99 66
0.0407806 0.137596 1.64163 0.953325 0.0777095 0.291776 164 134 91
0.0406859 0.134898 1.64324 0.87283 0.433545 -0.22407 138 109 70
0.0408038 0.134505 1.64389 0.632199 0.73417 -0.247626 134 105 66
0.0422935 0.134247 1.6441 0.474892 0.657914 -0.584489 134 106 67
0.048161 0.13119 1.64699 0.857946 0.246406 0.450792 154 125 85
0.056029 0.126374 1.65124 0.52298 0.272644 -0.807562 166 135 89
0.0560007 0.125457 1.65136 0.761199 -0.317141 -0.565683 160 128 81
0.0564839 0.126069 1.65185 0.824201 0.231539 -0.5168 166 137 92
0.0569832 0.122517 1.65386 0.972017 -0.178306 0.152935 131 104 66
0.0593243 0.119605 1.65634 0.986267 0.127628 -0.104825 158 131 91
0.0702383 0.0982402 1.67071 0.974416 0.20425 0.0937882 131 108 67
-0.017203 0.152711 1.62422 0.994555 -0.0211061 -0.102054 2 1 0
-0.0179327 0.14643 1.62757 0.993808 0.0827254 -0.0741768 11 4 2
-0.00874828 0.144891 1.63025 0.270665 0.858097 -0.436361 125 103 67
-0.00819196 0.144277 1.63025 0.541701 0.676619 -0.498745 125 106 74
0.0557255 0.127218 1.65186 0.565527 0.447689 -0.692643 144 118 76
0.0566562 0.126471 1.65247 0.932451 0.326873 -0.153915 149 123 81
0.0570987 0.12335 1.65386 0.990463 -0.133971 0.0321601 130 105 70
0.0570724 0.122924 1.65458 0.9597 -0.270243 -0.077098 151 123 85
0.0577831 0.122551 1.65515 0.478756 -0.0347562 -0.87726 167 136 91
0.0584683 0.12193 1.65577 0.902147 0.260497 -0.343907 155 126 81
0.0593917 0.119168 1.65708 0.949188 0.130072 -0.286573 154 126 87
0.0694573 0.0996107 1.67065 0.802854 0.591902 0.0712499 114 93 59
0.069988 0.0990019 1.67066 0.938243 0.343601 0.0404682 133 112 74
0.0702764 0.0986651 1.67144 0.984222 0.159424 -0.0767535 126 103 64
-0.0171203 0.153741 1.6242 0.95067 -0.184797 0.249151 1 0 0
-0.0170058 0.152735 1.62454 0.544418 0.363069 -0.756168 7 2 1
-0.016719 0.152272 1.62535 0.954449 -0.0778087 0.288051 5 1 0
-0.0166082 0.151116 1.62619 0.701493 0.675909 -0.225952 10 5 4
0.039688 0.136255 1.64469 0.692125 0.454385 0.5608 169 141 99
0.0561427 0.12715 1.65248 0.567094 0.692344 -0.446166 148 123 81
0.0569971 0.125903 1.65395 0.987744 0.0161332 0.155246 131 107 72
0.0569269 0.125034 1.65394 0.873095 0.13702 0.4679 78 56 27
0.0572108 0.12433 1.6543 0.988258 0.140515 -0.060013 83 62 33
0.0573027 0.124162 1.65522 0.90438 0.022463 -0.426137 113 88 54
0.0573185 0.123661 1.6546 0.937513 -0.305351 -0.166822 118 94 59
0.0574041 0.123372 1.6552 0.859772 0.0825098 -0.503969 154 128 89
0.0582363 0.122718 1.65577 0.687097 0.408129 -0.601107 150 122 80
0.058839 0.122394 1.65644 0.925902 0.360654 0.112401 128 101 62
0.0688121 0.100302 1.6706 0.774583 0.631241 0.0394511 108 85 52
0.0697998 0.1002 1.6715 0.917214 0.398345 0.00631922 116 94 61
0.0700899 0.0994508 1.67149 0.924339 0.364855 0.111703 113 92 57
-0.0165134 0.153949 1.62524 0.968932 -0.0728704 0.236349 3 1 1
-0.0168279 0.153262 1.62535 0.927154 -0.173349 0.33217 3 1 1
-0.0162592 0.153383 1.62536 0.98967 0.0375504 0.13836 7 3 2
-0.016402 0.153077 1.62595 0.982218 0.114403 0.14886 10 6 4
0.056751 0.126312 1.65464 0.986418 0.110044 0.121946 135 108 69
0.0570002 0.126341 1.65466 0.989139 0.0993939 0.108285 135 109 69
0.0564994 0.125394 1.65466 0.949136 0.207702 0.236645 134 109 73
0.057518 0.124851 1.65523 0.913412 -0.185885 -0.362113 122 97 62
0.0576189 0.12384 1.65586 0.884943 0.211798 -0.41475 143 117 78
0.0575692 0.124611 1.65585 0.874512 0.177892 -0.451202 131 104 67
0.0583613 0.12347 1.65654 0.851808 0.212012 -0.479035 147 120 80
0.0587506 0.122195 1.65727 0.98064 0.0984756 0.169256 94 68 34
0.0604131 0.119392 1.6589 0.250618 0.29019 -0.92357 109 81 48
0.0689204 0.100824 1.67135 0.92831 0.370722 -0.0283981 113 90 56
0.0694948 0.100538 1.67216 0.968417 0.238126 -0.0739204 123 100 64
-0.0170496 0.15395 1.62674 0.723707 -0.0144501 0.689956 5 2 1
-0.0170759 0.153135 1.62641 0.948501 -0.00228792 0.316766 6 2 2
-0.00707175 0.127911 1.64348 0.935376 0.0769839 0.345173 205 171 119
0.0565862 0.125846 1.65535 0.954076 0.234228 -0.186752 136 109 70
0.0572233 0.125901 1.65601 0.696661 0.228588 -0.680008 137 108 68
0.0577333 0.125331 1.65587 0.953769 0.115342 -0.277526 131 104 66
0.0576923 0.124356 1.65647 0.87429 0.308741 -0.374561 154 127 86
0.0576557 0.125093 1.65651 0.818403 0.400243 -0.412337 145 117 77
0.0583446 0.123999 1.65714 0.886811 0.0431237 -0.460115 150 123 82
0.0584148 0.123009 1.65726 0.919339 0.24048 0.311425 130 103 66
0.0688793 0.101232 1.67205 0.821247 0.570469 -0.0108915 108 85 50
0.0689764 0.100844 1.67273 0.848061 0.525336 -0.0693865 118 94 57
0.0674302 0.085447 1.68188 0.839809 0.371224 -0.396123 4 2 1
0.0674663 0.0849263 1.68252 0.94013 0.0138494 -0.340535 3 1 1
-0.0170075 0.15314 1.62772 0.940028 0.263934 0.21607 6 3 1
0.0565758 0.126333 1.65649 0.300445 0.762289 -0.573278 140 110 70
0.0574932 0.125801 1.65654 0.691328 0.375789 -0.617129 139 111 71
0.0579226 0.124895 1.65707 0.689378 0.357839 -0.629848 155 127 85
0.0582999 0.124751 1.65721 0.836232 0.132118 -0.532223 152 125 84
0.0583289 0.122544 1.65922 0.925812 0.371279 -0.0708772 142 114 75
0.0602506 0.121319 1.65981 0.296191 0.55531 -0.777111 172 148 105
0.0688825 0.101039 1.67325 0.823761 0.566544 0.0211273 123 99 62
0.0690108 0.100617 1.67393 0.836756 0.547575 -0.0008865 116 92 54
0.069239 0.100126 1.67399 0.941896 0.333214 -0.0424185 121 96 57
0.0702616 0.0986157 1.67563 0.876177 0.480839 0.0332904 127 101 61
0.0672666 0.0851024 1.68309 0.971969 0.0370105 -0.232176 3 1 1
0.0579344 0.125535 1.65762 0.686103 0.549545 -0.47672 151 123 81
0.0583282 0.124241 1.65852 0.995887 0.0905791 -0.00191754 157 131 89
0.0582743 0.124139 1.65912 0.931344 -0.139194 0.336487 157 128 88
0.0589337 0.122358 1.66028 0.254996 0.697515 -0.669664 132 104 63
0.068585 0.101322 1.67392 0.812366 0.577235 -0.0828325 125 100 60
0.0689507 0.100481 1.67467 0.947218 0.312854 0.0700074 123 97 58
0.0584605 0.126147 1.65822 0.589515 0.538462 -0.602105 154 126 84
0.0582867 0.125708 1.65914 0.938169 0.0463062 0.343067 155 128 87
0.0580127 0.124614 1.65974 0.863615 -0.108559 0.492325 156 127 86
0.0580098 0.124824 1.65914 0.954878 -0.00840172 0.296878 156 128 85
0.0583416 0.123322 1.65981 0.816066 0.0363416 -0.576815 149 121 80
0.0661609 0.119246 1.66358 0.835194 0.224734 0.501943 100 76 42
0.0674292 0.103999 1.67318 0.709689 0.443678 -0.547257 146 120 79
0.066454 0.0860367 1.68438 0.96151 -0.207583 -0.180025 3 1 1
-0.0169668 0.154881 1.63038 0.798309 -0.250956 0.54747 3 1 0
0.0578979 0.125092 1.66039 0.858789 -0.0811566 0.50586 153 124 83
0.0585 0.123558 1.66154 0.21018 0.603562 -0.769114 136 107 66
0.0658119 0.121477 1.66368 0.880332 0.330018 0.340741 130 106 66
0.0656754 0.120269 1.66425 0.860738 0.346608 0.372818 104 80 44
0.0654153 0.119821 1.66486 0.859416 0.322573 0.396675 101 77 43
0.0658424 0.11912 1.6649 0.837583 0.434083 0.331703 101 78 44
0.0657932 0.119552 1.66422 0.88646 0.276616 0.371041 102 79 45
0.0673101 0.104371 1.6739 0.888707 0.420183 -0.183428 143 118 76
0.0660578 0.0868437 1.68502 0.876047 -0.0398598 -0.480576 4 2 1
0.0664187 0.0862518 1.68504 0.927889 0.0733135 -0.365577 3 1 1
-0.0189615 0.151222 1.63362 0.897199 0.201863 -0.392791 8 3 1
-0.0182145 0.146959 1.63598 0.475266 0.855524 0.205427 122 99 62
0.0579503 0.126431 1.66067 0.994969 -0.0554633 0.0834243 161 133 91
0.0578326 0.12507 1.66149 0.992532 -0.0100659 0.121571 164 135 90
0.065064 0.120087 1.6655 0.854102 0.327828 0.40378 108 84 48
0.0651916 0.120563 1.66487 0.874715 0.315941 0.367497 110 86 50
0.0652371 0.119314 1.66549 0.766461 0.428803 0.478191 100 77 42
0.0652619 0.119349 1.66549 0.820728 0.34071 0.45861 100 77 42
0.0675651 0.105201 1.67468 0.769261 0.593442 -0.236779 150 123 77
0.067368 0.10386 1.67524 0.983412 -0.0354067 -0.177899 152 125 79
-0.0183925 0.151914 1.63441 0.836509 0.43709 -0.330463 12 6 4
-0.0191685 0.150495 1.63427 0.915582 0.125673 -0.38199 10 5 3
-0.0190546 0.149063 1.63538 0.956117 0.188008 0.224708 14 6 2
-0.0126097 0.129724 1.64827 0.494084 0.595794 0.633175 157 124 75
0.0575908 0.125861 1.66147 0.997609 0.00566667 0.0688711 164 135 91
0.0578667 0.125581 1.66211 0.958188 0.278076 -0.067454 165 137 90
0.0647927 0.123778 1.66404 0.676132 0.666645 -0.313736 147 123 86
0.0648028 0.122057 1.6649 0.863341 0.253593 0.436272 133 109 68
0.0652297 0.122927 1.66405 0.882124 0.0394356 -0.469363 139 115 76
0.0646104 0.121576 1.66552 0.823905 0.369946 0.429327 128 104 63
0.0645954 0.120341 1.66614 0.828213 0.377196 0.41447 118 94 56
0.0647853 0.120838 1.6655 0.864104 0.317405 0.390613 121 97 58
0.0648962 0.119608 1.66613 0.869035 0.261284 0.420129 107 83 47
-0.0190647 0.157948 1.6317 0.989843 0.128001 0.0618573 6 3 1
-0.0188867 0.158105 1.63155 0.990795 0.0229424 0.133414 4 2 1
-0.0197057 0.150483 1.63575 0.862326 0.466179 -0.197663 7 3 1
0.0348416 0.122466 1.66097 0.987969 0.152825 -0.0237152 152 123 79
0.0642017 0.123485 1.66522 0.844647 0.517134 0.138359 134 110 70
0.0642277 0.120603 1.66677 0.842294 0.314254 0.437933 129 105 65
0.0644488 0.119857 1.66677 0.808525 0.373302 0.4549 119 95 56
0.064444 0.11663 1.66897 0.849363 0.28797 0.44233 116 92 56
0.0656161 0.0944556 1.68271 0.940181 0.330832 -0.0813012 150 127 84
-0.0187025 0.154863 1.6339 0.894325 0.393322 0.21326 3 1 0
-0.0186233 0.15263 1.63551 0.979853 0.198698 0.0201792 20 14 9
-0.0180815 0.151556 1.63589 0.961293 -0.275278 -0.01175 7 2 1
-0.0182084 0.151162 1.63665 0.882014 -0.204973 0.424309 6 2 1
-0.0194527 0.149618 1.63752 0.953858 -0.0597291 0.294259 7 2 1
-0.0184822 0.145193 1.64065 0.699585 0.684159 0.206172 156 129 84
0.0353157 0.118475 1.66426 0.950017 0.290166 -0.115206 87 60 25
0.0635873 0.120995 1.66736 0.875953 0.131169 0.464221 127 103 63
0.0640042 0.116857 1.66963 0.801047 0.502225 0.32572 118 94 57
0.0636309 0.117696 1.66963 0.841783 0.288461 0.45628 111 88 53
-0.0187977 0.153111 1.63607 0.994726 0.0436981 0.0927987 6 1 1
-0.0183047 0.151336 1.6373 0.96484 -0.258355 -0.0483299 6 2 1
-0.018353 0.150643 1.63807 0.845687 -0.123756 -0.519132 4 1 1
-0.0173436 0.141925 1.64324 0.330938 0.795051 0.508305 170 142 97
-0.0161666 0.136149 1.64687 0.72039 0.618356 0.314125 148 118 73
-0.0134173 0.128072 1.65331 0.837138 0.309904 0.450732 188 157 107
0.0635069 0.121115 1.66845 0.74856 0.348313 0.564212 125 101 62
0.0637449 0.12033 1.66844 0.859292 0.244265 0.449391 121 97 59
0.0631623 0.118017 1.67022 0.6029 0.671067 0.431487 116 92 57
0.0632561 0.117967 1.67023 0.618762 0.672006 0.406868 115 91 57
0.0634107 0.118574 1.66959 0.96001 -0.0394388 0.277176 107 84 51
0.063142 0.117455 1.67086 0.829864 0.217645 0.513767 115 91 55
0.0635486 0.117157 1.67024 0.828118 0.226208 0.512884 114 90 54
0.0632498 0.116672 1.67085 0.814852 0.235138 0.529836 114 89 53
0.0633883 0.114794 1.67215 0.772567 0.381435 0.507591 118 93 56
-0.0194184 0.151394 1.63806 0.843613 0.0396581 -0.535485 3 0 0
-0.0187966 0.150069 1.63905 0.967422 -0.00415242 -0.253136 5 2 1
-0.0185176 0.1491 1.6399 0.893206 -0.236254 -0.38258 11 4 1
-0.0177838 0.141951 1.64414 0.721802 0.61959 -0.308401 165 139 93
-0.0134071 0.129456 1.65307 0.809898 0.403209 0.426015 225 193 142
0.0624601 0.125035 1.66654 0.843896 0.240748 0.479458 135 112 72
0.0631737 0.120609 1.66902 0.773878 0.239134 0.586454 120 96 59
0.0628354 0.118747 1.67023 0.75411 0.469101 0.459634 117 93 58
0.062643 0.119368 1.66975 0.884407 0.329058 0.330975 110 87 53
0.0624812 0.119439 1.67021 0.813343 0.325363 0.482298 116 93 58
0.0627872 0.118209 1.67086 0.777505 0.386984 0.495711 123 100 64
0.0626018 0.118938 1.67086 0.810803 0.352615 0.467185 121 97 61
0.0624265 0.117725 1.67145 0.796905 0.341356 0.498416 123 100 63
0.0621625 0.11594 1.67268 0.851884 0.236073 0.467508 117 93 60
0.0626982 0.115063 1.6727 0.733822 0.232964 0.638148 121 96 58
-0.018705 0.153045 1.63855 0.859004 -0.463104 -0.218282 4 1 0
-0.0185058 0.150563 1.64007 0.89351 -0.156378 -0.420935 4 1 1
-0.0193047 0.150098 1.6407 0.891917 -0.188488 -0.411044 5 1 1
-0.0173371 0.136184 1.64906 0.237944 0.909801 0.340064 200 170 117
-0.0175741 0.131822 1.65234 0.992113 -0.110074 0.0599563 150 119 75
-0.0143641 0.127341 1.65522 0.256685 0.823665 0.505657 190 160 110
0.0626832 0.124382 1.66773 0.829312 0.284265 0.481078 133 110 71
0.061884 0.119232 1.67146 0.890666 0.240922 0.385578 126 104 66
0.0621217 0.118487 1.67145 0.822315 0.348725 0.449655 122 99 62
0.0617347 0.11503 1.67395 0.838654 0.351372 0.416169 127 104 68
0.0631852 0.104791 1.68042 0.762389 0.508885 0.399749 133 107 65
0.0637509 0.104157 1.68042 0.742389 0.469593 0.47785 137 110 67
0.0633069 0.104834 1.68043 0.725174 0.483479 0.490277 133 106 64
-0.0198877 0.151815 1.64044 0.98228 -0.168866 0.0813036 2 1 0
-0.0197988 0.151326 1.64128 0.920102 0.369941 0.128672 8 5 2
-0.00468052 0.113544 1.6661 0.213038 0.959925 0.182094 126 100 65
-0.00538057 0.113877 1.66571 0.0663561 0.973037 0.220898 91 69 40
0.0118056 0.110141 1.67074 0.33778 0.912389 0.231197 183 153 107
0.0625336 0.10449 1.68162 0.784666 0.413526 0.461839 139 113 70
-0.0201185 0.148249 1.644 0.914929 0.0788202 -0.395844 6 2 0
-0.0119887 0.11495 1.66546 0.817089 0.468105 0.336516 183 153 102
-0.0119958 0.114393 1.66625 0.316397 0.838908 0.442861 188 155 103
0.062106 0.105233 1.68165 0.782784 0.405372 0.472147 130 104 63
0.0620762 0.104751 1.68226 0.760398 0.459796 0.458674 132 106 65
0.0621765 0.104159 1.68293 0.716966 0.536492 0.445125 139 113 70
0.0621402 0.104188 1.68292 0.766089 0.440422 0.46812 138 112 69
-0.0205652 0.148678 1.64434 0.906179 0.0562351 -0.419138 5 1 0
0.0618062 0.104868 1.68293 0.740158 0.475387 0.475578 134 108 66
0.061695 0.104328 1.68356 0.762995 0.387699 0.517231 141 114 71
-0.0220872 0.135046 1.65449 0.67486 0.603784 0.424275 184 155 104
-0.0214059 0.130741 1.65728 0.945322 0.0121783 0.32591 194 162 108
0.0599974 0.123554 1.67169 0.885771 0.277203 0.372247 113 90 53
0.0597794 0.123004 1.6725 0.896052 0.231721 0.378678 134 111 75
0.0604686 0.120775 1.67336 0.699129 0.255187 0.667906 129 105 65
0.0600669 0.113475 1.67823 0.821809 0.466857 0.32661 124 99 61
0.0604219 0.107601 1.68224 0.813768 0.449261 0.36871 136 110 70
-0.0200971 0.151846 1.64461 0.993292 -0.0631344 0.0968778 7 4 1
-0.0222609 0.143733 1.6492 0.908519 -0.142009 0.392972 10 5 2
-0.0218956 0.14338 1.65033 0.958471 -0.145186 -0.24547 11 5 2
-0.0194828 0.159914 1.64097 0.961569 0.151898 0.228717 5 2 1
-0.0204098 0.152768 1.64502 0.996608 -0.0819212 -0.00778112 6 3 1
-0.0207971 0.132753 1.65826 0.536212 0.830309 0.151869 178 147 97
-0.0544786 0.0629329 1.6984 0.895305 -0.152875 0.418399 2 1 0
-0.0371985 0.0750498 1.69244 0.0452543 0.694136 -0.71842 1 1 0
0.0597337 0.109221 1.68285 0.862396 0.407269 0.300673 134 110 70
0.0591045 0.108274 1.68413 0.73766 0.275212 0.616536 142 116 73
0.0594681 0.107057 1.68478 0.768694 0.387711 0.508714 150 124 81
0.0602391 0.106435 1.68493 0.628829 0.395777 0.669279 148 122 79
0.0599156 0.100804 1.68822 0.784507 0.36177 0.503658 160 133 88
0.0597843 0.101115 1.68869 0.821026 0.337202 0.460663 164 137 90
-0.0413303 0.0755372 1.69387 0.0912801 0.894885 -0.436863 28 22 17
-0.0544529 0.0628139 1.69932 0.921796 -0.342104 0.182365 1 1 0
0.0567093 0.130089 1.67002 0.800065 0.428895 0.419459 10 4 3
0.0580138 0.131745 1.66965 0.879071 0.437917 0.188318 1 0 0
0.0584948 0.110776 1.68287 0.852214 0.343418 0.39471 123 99 60
0.0588368 0.109542 1.6835 0.831873 0.28622 0.475463 137 112 70
0.058911 0.109523 1.6835 0.81901 0.332848 0.467371 138 112 71
-0.0376781 0.0767264 1.69397 0.514042 0.512295 -0.687979 9 6 4
-0.0372942 0.0765156 1.69476 0.296162 0.712811 -0.635758 3 2 1
-0.0543809 0.0639828 1.70092 0.664256 0.475845 0.576486 2 2 1
0.0562796 0.12998 1.67137 0.83089 0.386491 0.400309 6 2 1
0.0584669 0.107584 1.68607 0.832437 0.355648 0.424927 152 125 80
-0.0412726 0.076568 1.69549 -0.104964 0.918446 -0.381364 27 21 18
-0.0548915 0.0649787 1.70077 0.531361 0.709211 0.463331 3 1 1
-0.0371635 0.0773569 1.69556 0.365832 0.841525 -0.397496 4 3 2
0.057757 0.109079 1.68608 0.871677 0.370792 0.320456 153 128 83
0.0578886 0.107771 1.68671 0.93002 0.0452484 0.364713 156 128 83
0.0580531 0.103863 1.6894 0.743676 0.402934 0.53347 156 131 85
-0.0230833 0.124319 1.6674 0.519717 0.798468 0.30388 190 157 102
-0.021261 0.117326 1.67243 0.973673 0.125026 0.190605 199 165 109
-0.0398132 0.0770331 1.6961 -0.100999 0.95077 -0.292977 17 13 10
0.0573051 0.109798 1.68613 0.856494 0.367705 0.362231 153 128 84
0.0575098 0.10416 1.6901 0.746498 0.483111 0.457543 158 133 86
0.0572387 0.103639 1.69067 0.824913 0.446421 0.346737 161 136 89
-0.0237186 0.14064 1.65848 0.908275 0.132857 -0.396718 7 2 1
-0.0266662 0.131909 1.66368 0.970909 -0.00451857 0.239406 16 8 4
-0.0236233 0.123883 1.66875 0.410245 0.84313 0.347607 214 181 124
-0.0216223 0.117492 1.67322 0.79551 0.107123 0.596396 196 161 106
-0.0392962 0.0794111 1.69667 0.478163 0.163357 -0.862945 26 21 17
-0.0367447 0.0796513 1.69648 0.676366 0.507348 -0.533973 10 8 5
-0.0387287 0.0785118 1.69658 0.803012 0.414207 -0.428491 15 11 10
-0.0519641 0.0674477 1.70331 0.870485 0.471158 0.142359 2 1 0
0.0569652 0.105106 1.69069 0.787495 0.520525 0.330008 149 125 81
0.0570507 0.104376 1.69074 0.875152 0.44657 0.186238 158 134 88
-0.0244167 0.139609 1.65964 0.824089 -0.405931 -0.395092 6 1 0
-0.0265066 0.133841 1.66403 0.8757 0.141306 -0.461717 9 2 1
-0.0220413 0.118981 1.67335 0.326694 0.734794 0.594432 202 170 112
-0.0380385 0.0798047 1.69702 0.818943 0.357472 -0.44894 21 17 12
-0.0369435 0.080085 1.69754 0.735315 0.513001 -0.442879 10 7 5
-0.036638 0.0789915 1.69893 0.989269 0.0826846 0.12046 0 0 0
0.0565015 0.105952 1.69076 0.950694 -0.0879348 0.297404 149 125 82
-0.0379242 0.0805086 1.69789 0.766426 0.459272 -0.449067 18 14 10
-0.0374087 0.080284 1.69869 0.851489 0.516106 -0.0927457 7 5 4
-0.0378402 0.0786358 1.69974 0.989697 0.00844309 0.142931 0 0 0
-0.0384046 0.0782911 1.70039 0.975987 0.180142 0.122465 0 0 0
-0.0367475 0.0789156 1.69938 0.991853 0.103 0.0749581 1 0 0
0.055552 0.10633 1.69216 0.918938 0.174235 -0.353829 159 135 100
-0.0224555 0.148326 1.65691 0.948939 0.039405 -0.312988 2 1 0
-0.0375831 0.0808032 1.69946 0.972517 0.223869 0.0639812 5 4 3
-0.0375167 0.0803095 1.70044 0.97377 0.222378 0.0481725 0 0 0
-0.037337 0.0789775 1.70052 0.992694 0.0106869 0.120184 0 0 0
-0.0227886 0.14688 1.65927 0.983059 -0.0242628 0.181678 7 3 1
-0.0370966 0.0829582 1.69989 0.935017 0.296438 0.194595 11 8 7
-0.0378375 0.0809379 1.70143 0.94794 0.272868 0.164175 1 0 0
-0.0379084 0.0806852 1.70158 0.849379 0.527729 -0.00761217 0 0 0
-0.0268099 0.131777 1.66953 0.821325 0.322514 0.470542 8 2 1
-0.0390898 0.0792941 1.7027 0.943347 0.293855 0.154096 1 1 1
-0.0391248 0.0786799 1.70368 0.975572 0.162492 0.147839 0 0 0
-0.0279108 0.126583 1.67473 0.879218 0.275022 -0.389024 12 4 1
-0.0398584 0.0809502 1.70333 0.911935 0.340134 0.229529 9 7 6
-0.0391134 0.080165 1.70345 0.946174 0.152121 0.285682 1 1 1
-0.0397348 0.0804794 1.70425 0.943598 0.318506 0.0904251 3 2 2
-0.0247939 0.150626 1.66006 0.801409 0.247805 -0.544367 0 0 0
-0.0407398 0.0828227 1.70356 0.903398 -0.220203 0.367945 26 21 17
-0.0408803 0.081309 1.70376 0.91943 0.219979 0.325971 17 14 11
-0.0407237 0.080878 1.70465 0.929718 0.161252 0.331094 6 5 4
-0.0437514 0.0777607 1.70784 0.971609 -0.0724852 0.225217 0 0 0
-0.0304308 0.123661 1.67988 0.883348 0.0936488 0.459266 11 4 1
-0.0586656 0.0677865 1.71448 0.942651 -0.145377 0.300458 0 0 0
-0.0260397 0.14295 1.66872 0.911755 -0.200435 -0.358509 4 1 0
-0.0259429 0.140826 1.66999 0.879723 0.199763 -0.431489 3 1 0
-0.0271006 0.13502 1.67341 0.988548 0.0528708 0.141345 13 7 3
-0.0288867 0.125865 1.67915 0.97485 -0.196329 0.10546 12 6 2
-0.0287327 0.124376 1.68094 0.876626 0.104222 -0.46975 8 3 1
-0.022948 0.150815 1.66446 0.971371 0.152695 0.181997 7 4 2
-0.0293673 0.125969 1.68047 0.973033 -0.225488 0.0485959 12 6 2
-0.0299705 0.123543 1.68267 0.891244 -0.410149 -0.19355 6 1 0
-0.0308521 0.121643 1.68314 0.870106 -0.481737 -0.104139 8 2 1
-0.0391154 0.0847387 1.70786 0.931708 0.287969 0.221346 3 3 2
-0.0273209 0.133834 1.6762 0.99609 0.077812 0.0418288 16 9 6
-0.0273049 0.133733 1.67633 0.953523 -0.0997214 0.28434 9 3 1
-0.0296741 0.126798 1.68107 0.979528 -0.201306 0.00105432 11 5 2
-0.0299865 0.123912 1.68329 0.896958 -0.379587 -0.226672 6 1 0
-0.0303603 0.123143 1.68414 0.893833 -0.409622 -0.182407 5 1 0
-0.0300675 0.121271 1.68439 0.914326 -0.277185 -0.295256 8 3 1
-0.0387493 0.0850927 1.70918 0.943633 0.299353 0.141228 1 1 0
-0.0583304 0.0693862 1.7177 0.968126 0.217171 0.124776 1 0 0
-0.0281452 0.133605 1.67843 0.981309 0.11367 0.155282 17 11 6
-0.0284963 0.133589 1.67789 0.97435 0.13516 0.179927 13 7 4
-0.0298432 0.128677 1.68133 0.999761 -0.00245085 0.0217043 15 9 5
-0.0295195 0.12743 1.68191 0.990593 -0.134219 0.0266453 10 5 2
-0.0296209 0.128373 1.68202 0.996824 0.0795715 0.00323051 15 9 5
-0.0298984 0.127555 1.68141 0.98937 -0.106722 0.0987835 11 6 2
-0.0293232 0.127101 1.68268 0.99855 -0.0534799 -0.0061997 11 6 3
-0.0292135 0.12618 1.68254 0.985398 -0.170081 -0.00801735 11 6 3
-0.0381786 0.0854232 1.70987 0.986517 0.12804 0.10193 0 0 0
-0.0392653 0.0836532 1.71054 0.98864 0.111817 0.100435 0 0 0
-0.0585503 0.0699147 1.71865 0.968457 0.216137 0.124001 1 0 0
-0.028364 0.134551 1.67854 0.984776 0.100111 0.142103 15 9 5
-0.0284291 0.134003 1.67947 0.986191 0.095635 0.135209 17 11 6
-0.0278242 0.134824 1.67887 0.982235 0.110885 0.151389 16 10 6
-0.0283061 0.13417 1.67935 0.991045 0.0744608 0.110841 16 10 6
-0.0280721 0.133338 1.67909 0.975064 0.134937 0.176187 18 11 7
-0.0293789 0.128089 1.68276 0.999286 -0.0373958 -0.00541911 12 7 3
-0.0292898 0.127456 1.68388 0.989828 -0.131415 -0.0544984 11 6 3
-0.041058 0.083069 1.71273 0.987515 0.122899 0.0985345 0 0 0
-0.0397057 0.084122 1.71211 0.990184 0.107301 0.089571 0 0 0
-0.0583963 0.0704557 1.71918 0.976061 0.176458 0.127154 1 0 0
-0.0254222 0.149444 1.66978 0.938001 -0.0649447 0.340493 6 2 1
-0.0283467 0.135795 1.67843 0.977613 0.0939889 0.188254 12 7 3
-0.0285423 0.136751 1.67848 0.990079 0.0636069 0.125287 11 5 2
-0.02839 0.135299 1.67933 0.976666 0.135455 0.166658 13 8 4
-0.0294665 0.129704 1.68349 0.962142 -0.12813 -0.240552 13 7 4
-0.0378725 0.0954579 1.70615 0.870939 0.0112189 0.491263 12 5 3
-0.0397482 0.085748 1.71199 0.980411 0.149886 0.127782 1 1 0
-0.0412495 0.0837387 1.71389 0.993119 0.0947211 0.0688601 0 0 0
-0.024796 0.153377 1.66887 0.961224 -0.00449008 0.275731 3 1 1
-0.0250312 0.149004 1.67113 0.972871 -0.069391 0.220696 8 3 1
-0.0292917 0.13688 1.67961 0.912559 -0.273204 0.304294 3 1 0
-0.0286946 0.136112 1.67942 0.991921 0.0611477 0.111151 12 6 3
-0.0286495 0.135763 1.68027 0.963315 0.230046 0.138213 16 10 6
-0.0292576 0.135047 1.68043 0.961144 0.27358 -0.036835 11 6 3
-0.0282248 0.135211 1.68107 0.961593 0.259681 -0.0889079 14 8 5
-0.0299996 0.131741 1.6826 0.959656 0.244586 -0.1387 10 4 3
-0.0297383 0.130544 1.68319 0.985958 -0.0335865 -0.163584 18 12 8
-0.028934 0.131191 1.68352 0.894369 0.179651 -0.40967 6 2 1
-0.0299033 0.130026 1.68453 0.997798 0.063066 0.0205441 14 9 5
-0.0373478 0.0944453 1.70783 0.935323 -0.236905 0.26277 13 6 4
-0.0389932 0.0873005 1.71311 0.993417 0.0956038 0.0631134 0 0 0
-0.0384491 0.0859126 1.71331 0.958294 0.279816 0.0580921 1 0 0
-0.0288382 0.137606 1.68019 0.913405 -0.211847 0.34758 5 1 1
-0.02998 0.133141 1.68351 0.976583 -0.215099 -0.00416243 14 8 4
-0.0284683 0.132376 1.68353 0.712389 -0.118156 -0.691766 6 2 1
-0.0357998 0.0978411 1.70703 0.966996 -0.0442717 0.250916 16 9 6
-0.0369498 0.0974934 1.70684 0.942001 -0.172002 0.288181 14 7 4
-0.03569 0.098209 1.70624 0.943199 -0.184076 0.27657 13 7 4
-0.036498 0.096199 1.7074 0.945622 -0.201748 0.255141 15 8 5
-0.0287359 0.138746 1.68024 0.786571 0.419314 0.453301 2 1 0
-0.0285897 0.136645 1.68199 0.963811 0.264301 -0.0348299 14 9 5
-0.0290657 0.131297 1.68516 0.997971 -0.0630502 0.00891523 10 6 3
-0.0314725 0.122577 1.69096 0.947779 0.144231 0.28445 7 3 1
-0.034785 0.0992146 1.70737 0.973397 -0.174124 0.148926 15 8 5
-0.0365086 0.0967626 1.70842 0.920896 0.12632 0.368775 19 11 8
-0.0363391 0.097082 1.7082 0.944975 -0.191322 0.265363 16 8 6
-0.0367168 0.0961557 1.70944 0.946333 -0.198391 0.255138 20 12 9
-0.0423156 0.0856162 1.7155 0.994302 -0.0227795 0.104141 2 1 1
-0.0297292 0.134015 1.68446 0.978256 -0.207364 0.00404099 12 7 4
-0.0327424 0.115823 1.69754 0.972527 -0.0763586 0.219912 8 4 1
-0.0349331 0.102442 1.70638 0.976253 -0.149958 0.156339 12 5 3
-0.0361832 0.0999846 1.70808 0.976467 -0.147158 0.157658 16 8 6
-0.0358551 0.100061 1.70809 0.941999 -0.171381 0.288559 14 7 5
-0.0366775 0.0998838 1.70749 0.975777 -0.12512 0.179458 17 9 6
-0.035423 0.0998972 1.70862 0.948235 -0.196085 0.249803 15 7 5
-0.0371815 0.097212 1.70958 0.93377 0.173769 0.312853 20 12 9
-0.0373177 0.0965963 1.71055 0.943114 -0.159077 0.291944 19 11 8
-0.0388643 0.0890316 1.71513 0.987244 0.145348 0.0649815 0 0 0
-0.0423644 0.0863552 1.71629 0.992929 -0.00383615 0.118644 4 3 1
-0.041427 0.086611 1.71617 0.985173 0.0630657 0.159551 0 0 0
-0.0235243 0.164152 1.66527 0.835906 0.530452 -0.141005 0 0 0
-0.032339 0.117218 1.69742 0.991847 -0.0704217 0.106213 9 5 2
-0.0323222 0.116865 1.69813 0.987082 0.018076 0.159195 11 6 3
-0.0322131 0.115343 1.69929 0.980854 -0.0184326 0.193873 11 5 3
-0.0333338 0.112664 1.70027 0.94443 0.210521 0.252456 13 7 5
-0.0326758 0.113447 1.70048 0.997611 -0.0497975 0.0478747 16 11 8
-0.0351169 0.10332 1.70667 0.975863 -0.156071 0.152751 14 7 4
-0.0350017 0.103048 1.70765 0.92669 -0.345838 0.14711 9 3 2
-0.0362367 0.100481 1.70921 0.994675 -0.102553 -0.0102237 20 13 9
-0.0361866 0.101078 1.70817 0.976136 -0.169373 0.135908 14 7 5
-0.0362195 0.100492 1.7092 0.99423 -0.105974 -0.0165942 20 13 9
-0.0391378 0.0896183 1.7163 0.998605 0.0513423 0.0123233 2 1 1
-0.0432223 0.0863213 1.71818 0.994015 0.0025045 0.109212 3 1 1
-0.0423442 0.0865393 1.71808 0.993483 -0.00973475 0.113561 0 0 0
-0.0237913 0.164666 1.66664 0.59821 0.617369 0.510881 0 0 0
-0.0223928 0.16189 1.6685 0.720859 0.393448 0.57058 0 0 0
-0.0327085 0.125131 1.69375 0.655689 0.129144 -0.743905 4 1 0
-0.0319877 0.118153 1.69793 0.991119 -0.0355042 0.128148 11 6 3
-0.0326528 0.118147 1.6978 0.991335 -0.0453565 0.12328 10 6 3
-0.0317915 0.117775 1.69864 0.991643 -0.129012 0.000933468 12 7 4
-0.0323688 0.114766 1.70026 0.992822 -0.116449 0.0272689 14 8 5
-0.0323191 0.114369 1.70107 0.978599 -0.0670043 -0.194564 16 10 6
-0.0326359 0.11304 1.7013 0.984893 -0.167151 -0.0452422 12 7 4
-0.0352671 0.103833 1.7078 0.975387 -0.179923 0.127466 12 6 3
-0.0357001 0.102334 1.70876 0.945231 -0.240737 0.220418 13 6 4
-0.0361114 0.101538 1.70942 0.97346 -0.21182 0.086646 16 8 6
-0.0367004 0.100644 1.71067 0.976801 -0.151892 0.150959 17 9 7
-0.0371572 0.0991881 1.71092 0.976134 -0.185182 0.113445 16 9 6
-0.0434571 0.0872546 1.71852 0.996233 -0.0581355 0.0643436 9 5 3
-0.0226269 0.164203 1.66844 0.791155 0.0936859 -0.604398 0 0 0
-0.0227417 0.162945 1.66831 0.835525 -0.11873 -0.536472 0 0 0
-0.0265724 0.147715 1.67859 0.990971 -0.12389 -0.0512714 15 11 7
-0.0274712 0.146378 1.67977 0.94032 -0.0880223 0.328712 4 1 0
-0.0319838 0.120461 1.69809 0.988505 0.000246525 0.151185 10 5 2
-0.0316913 0.118974 1.69862 0.986994 0.0345856 0.156994 12 7 4
-0.0320829 0.119187 1.69818 0.98927 -0.00739442 0.145914 11 6 3
-0.0314359 0.118684 1.69919 0.992202 -0.0646314 0.106572 13 7 4
-0.0318565 0.117181 1.69969 0.993675 -0.077291 0.0814632 15 9 5
-0.0320026 0.115699 1.70086 0.981374 -0.181593 -0.0626839 19 12 8
-0.0322322 0.114756 1.7021 0.96672 -0.220746 -0.12932 14 8 5
-0.0331274 0.112224 1.7033 0.984837 -0.166754 -0.047841 14 8 6
-0.036195 0.102434 1.70963 0.973239 -0.21227 0.0880181 14 7 5
-0.0364315 0.101892 1.7106 0.976399 -0.168117 0.135578 15 8 6
-0.0429101 0.0878217 1.71945 0.92431 -0.369249 0.0964643 4 2 1
-0.0603249 0.0763089 1.72739 0.912093 -0.253613 0.322128 3 1 1
-0.0240155 0.164839 1.66824 0.934757 0.242395 -0.259758 0 0 0
-0.0241785 0.165544 1.66782 0.859749 0.0376607 0.509326 0 0 0
-0.0227609 0.164668 1.66922 0.653681 0.365463 -0.662675 0 0 0
-0.0251622 0.155946 1.6751 0.939498 -0.289876 0.182523 1 0 0
-0.025213 0.152723 1.67691 0.874882 -0.174464 0.451822 4 1 1
-0.0323091 0.121227 1.69829 0.990157 -0.130464 0.0506703 10 6 3
-0.0317628 0.120131 1.6987 0.987422 0.0143237 0.157459 11 6 3
-0.0313992 0.121118 1.69911 0.988901 0.00037311 0.148572 12 7 4
-0.0320176 0.121038 1.69885 0.989351 -0.0200516 0.144162 10 5 3
-0.0315063 0.119825 1.69927 0.985772 0.0327563 0.164865 13 8 4
-0.0314706 0.119363 1.70009 0.989372 -0.000522494 0.145404 16 10 6
-0.031843 0.117282 1.70163 0.992508 -0.0544715 0.109369 15 8 5
-0.0366433 0.103664 1.71104 0.975987 -0.169927 0.136287 16 9 6
-0.0364658 0.102828 1.71077 0.982827 -0.147743 0.110561 16 9 6
-0.0366236 0.102316 1.71171 0.976342 -0.133585 0.170031 16 9 6
-0.0401475 0.0977461 1.71423 0.978189 -0.198594 -0.060878 19 12 9
-0.0556675 0.0802569 1.72527 0.950556 -0.22739 0.211514 9 5 4
-0.0593006 0.0775592 1.72783 0.983504 0.124345 0.13137 3 1 0
-0.0219191 0.165966 1.66945 0.596203 0.2602 -0.759499 0 0 0
-0.0251243 0.155118 1.67695 0.993856 -0.00116791 0.110675 8 5 4
-0.024407 0.154828 1.67673 0.728745 0.519703 0.445914 10 6 5
-0.0332541 0.127419 1.69519 0.814712 0.578807 0.0350376 5 2 0
-0.0319008 0.126639 1.69608 0.991201 -0.0444557 0.124676 9 5 2
-0.032162 0.123898 1.69788 0.991582 -0.0740106 0.106239 12 8 4
-0.0328668 0.122166 1.69858 0.959007 -0.265932 -0.0979099 11 6 2
-0.0322755 0.123195 1.69901 0.959285 -0.251088 -0.12933 13 8 4
-0.0320037 0.122333 1.69875 0.954856 -0.274576 -0.113391 11 6 3
-0.0316346 0.122103 1.69934 0.999971 -0.00759295 0.00103396 15 10 6
-0.0314954 0.120537 1.70012 0.989564 -0.0045584 0.144021 14 9 5
-0.0319928 0.119621 1.70151 0.989525 -0.0155381 0.143526 15 9 5
-0.0318512 0.115849 1.70325 0.888646 -0.239612 -0.391017 13 7 4
-0.0362935 0.103547 1.71159 0.976272 -0.170588 0.133389 16 9 6
-0.0593312 0.0798241 1.72792 0.221011 0.832628 -0.507824 10 6 4
-0.0589439 0.0783955 1.72859 0.980726 0.192404 0.0340181 3 1 0
-0.0581264 0.0782194 1.72924 0.993136 -0.116939 -0.00251408 2 1 0
-0.0252989 0.15524 1.67722 0.874584 -0.138314 0.464727 9 5 4
-0.0338133 0.127048 1.69669 0.813665 0.580403 0.0328859 4 1 0
-0.0314048 0.126874 1.69727 0.997713 -0.0596513 -0.0318044 12 8 4
-0.0316374 0.127374 1.69655 0.988849 0.0280279 0.146262 9 6 3
-0.0314184 0.124339 1.69939 0.960284 -0.262641 -0.0941988 15 10 6
-0.0314887 0.123335 1.69921 0.97429 -0.216101 -0.0637191 13 8 4
-0.0312637 0.122979 1.69994 0.989206 -0.14167 0.0374355 16 11 6
-0.0315291 0.121643 1.7002 0.982326 0.0348437 0.183905 13 8 4
-0.0331342 0.11755 1.7034 0.835653 -0.0928563 0.541352 5 1 0
-0.0325974 0.116215 1.70443 0.992509 -0.0366476 0.116549 14 9 5
-0.032737 0.115264 1.70579 0.999995 0.00121865 0.00275064 20 14 10
-0.0246948 0.156981 1.67773 0.851265 -0.0728981 0.519647 3 1 0
-0.0250634 0.155389 1.67824 0.978383 0.205835 -0.0199528 5 2 1
-0.0257391 0.154678 1.67928 0.955959 -0.214598 0.200226 3 1 1
-0.0255674 0.153665 1.67915 0.917895 -0.314974 0.241372 4 2 1
-0.0326098 0.127168 1.69808 0.915946 0.333907 0.222594 7 4 2
-0.0316545 0.126204 1.69858 0.984213 0.0985596 0.147008 13 9 5
-0.031481 0.125698 1.69926 0.982604 0.100506 0.156169 16 11 7
-0.0332271 0.120461 1.70264 0.857547 -0.017354 0.514113 8 2 1
-0.0329303 0.121593 1.70252 0.914326 -0.375881 0.150738 5 2 1
-0.0331514 0.11868 1.70348 0.992193 -0.0504273 0.114058 7 2 1
-0.0333283 0.116838 1.70501 0.979187 -0.0563038 0.194992 11 6 3
-0.0588652 0.0778732 1.73145 0.910856 -0.215665 0.351895 1 0 0
-0.0585483 0.0778437 1.73135 0.909546 -0.207672 0.359999 1 0 0
-0.0585483 0.0778437 1.73135 0.909546 -0.207672 0.359999 1 0 0
-0.0247801 0.155956 1.67892 0.756496 0.462772 -0.462121 2 1 0
-0.0256939 0.155143 1.67956 0.709292 0.673501 0.208088 2 1 0
-0.0248355 0.155149 1.67984 0.949651 0.134912 0.282777 3 1 0
-0.0252299 0.154627 1.68038 0.650463 0.735396 0.189974 3 1 1
-0.0256525 0.154199 1.68002 0.807713 -0.146009 0.571211 4 2 1
-0.0321069 0.127183 1.69924 0.964192 0.211915 0.159457 12 7 4
-0.0313068 0.126877 1.69918 0.970529 0.173417 0.167332 14 9 5
-0.0311578 0.127303 1.6993 0.95301 0.248303 0.173545 14 9 5
-0.0314948 0.124614 1.70078 0.989959 -0.129493 -0.0566883 17 12 7
-0.0313302 0.124164 1.70165 0.978238 -0.0779874 -0.192273 15 10 6
-0.0315467 0.122925 1.70177 0.974658 -0.218739 -0.0468556 14 9 5
-0.032093 0.123292 1.70258 0.985456 -0.169706 0.00870995 13 8 4
-0.0323939 0.122716 1.70248 0.893459 -0.40361 0.197052 6 2 0
-0.032093 0.123292 1.70258 0.985456 -0.169706 0.00870995 12 7 4
-0.0331062 0.120541 1.7044 0.990445 -0.0243688 0.135741 9 4 2
-0.0332552 0.118814 1.70537 0.989565 -0.0104724 0.143704 10 5 3
-0.0482723 0.0872903 1.72654 0.913007 -0.277947 0.298602 12 7 4
-0.0598052 0.0786878 1.73197 0.938822 -0.0771767 0.335645 3 1 0
-0.0596771 0.0785225 1.73205 0.912471 -0.181963 0.366452 2 1 0
-0.0596296 0.0785481 1.73202 0.917743 -0.147504 0.368769 3 1 0
-0.0596296 0.0785481 1.73202 0.917743 -0.147504 0.368769 3 1 0
-0.0260758 0.155356 1.68037 0.632223 0.668193 0.392188 1 0 0
